1.71873 0.92117 -0.68579
1.71874 0.91675 -0.68506
1.71874 0.91235 -0.68433
1.71875 0.90795 -0.68361
1.71877 0.90356 -0.68290
1.71876 0.89918 -0.68218
1.71876 0.89481 -0.68147
1.72876 0.89562 -0.68472
1.73424 0.89406 -0.68618
1.74528 0.89534 -0.68984
1.75647 0.89665 -0.69355
1.76211 0.89509 -0.69507
1.77353 0.89644 -0.69887
1.77928 0.89488 -0.70043
1.79090 0.89624 -0.70430
1.79680 0.89470 -0.70591
1.80865 0.89609 -0.70986
1.81464 0.89455 -0.71151
2.62132 1.01069 -0.98802
2.62133 1.00467 -0.98727
2.62133 0.99867 -0.98652
2.62134 0.99267 -0.98577
2.62136 0.98669 -0.98503
2.62136 0.98071 -0.98429
2.62135 0.97473 -0.98356
2.62135 0.96877 -0.98283
2.62139 0.96283 -0.98212
2.62139 0.95688 -0.98140
2.62140 0.95095 -0.98069
2.62140 0.94502 -0.97998
2.62142 0.93911 -0.97928
2.62142 0.93320 -0.97858
2.62142 0.92729 -0.97789
2.62142 0.92140 -0.97720
2.62145 0.91552 -0.97653
2.62145 0.90965 -0.97585
2.62146 0.90378 -0.97518
2.62146 0.89792 -0.97451
2.63201 0.89565 -0.97776
2.65742 0.89837 -0.98653
2.67031 0.89678 -0.99065
2.64697 -0.97222 -0.99170
2.62363 -0.96961 -0.98368
2.62138 -0.97474 -0.98357
2.62138 -0.98071 -0.98430
2.62138 -0.98669 -0.98504
2.62136 -0.99268 -0.98578
2.62135 -0.99867 -0.98652
2.62135 -1.00468 -0.98728
2.62134 -1.01070 -0.98803
2.62131 -1.01671 -0.98878
2.62131 -1.02275 -0.98955
2.62131 -1.02879 -0.99033
2.62130 -1.03484 -0.99110
2.62129 -1.04090 -0.99189
2.62129 -1.04698 -0.99268
2.62128 -1.05306 -0.99347
2.62128 -1.05915 -0.99427
2.62124 -1.06524 -0.99506
1.80914 -0.96963 -0.72187
1.79814 -0.96837 -0.71825
1.79272 -0.97008 -0.71685
1.78196 -0.96887 -0.71333
1.77663 -0.97058 -0.71197
1.71838 0.93875 -0.69414
1.71838 0.93430 -0.69338
1.71837 0.92985 -0.69263
1.71837 0.92541 -0.69188
1.71841 0.92100 -0.69115
1.71841 0.91658 -0.69042
1.71842 0.91217 -0.68969
1.71842 0.90778 -0.68896
1.71844 0.90339 -0.68824
1.71844 0.89901 -0.68752
1.71844 0.89464 -0.68680
1.72844 0.89545 -0.69008
1.73391 0.89389 -0.69155
1.74495 0.89517 -0.69524
1.75614 0.89648 -0.69898
1.76178 0.89493 -0.70051
1.77320 0.89627 -0.70433
1.77895 0.89471 -0.70591
1.79056 0.89607 -0.70980
1.79646 0.89453 -0.71143
1.80831 0.89593 -0.71541
1.81430 0.89438 -0.71707
2.62083 1.01050 -0.99575
2.62083 1.00448 -0.99499
2.62084 0.99848 -0.99423
2.62084 0.99248 -0.99348
2.62086 0.98650 -0.99274
2.62086 0.98052 -0.99199
2.62086 0.97455 -0.99125
2.62086 0.96859 -0.99051
2.62089 0.96265 -0.98980
2.62090 0.95670 -0.98907
2.62090 0.95077 -0.98836
2.62091 0.94484 -0.98764
2.62093 0.93893 -0.98694
2.62092 0.93302 -0.98624
2.62092 0.92712 -0.98554
2.62092 0.92122 -0.98484
2.62096 0.91535 -0.98416
2.62096 0.90947 -0.98348
2.62096 0.90361 -0.98280
2.62097 0.89775 -0.98213
2.63151 0.89548 -0.98541
2.65692 0.89820 -0.99425
2.66981 0.89661 -0.99839
2.64647 -0.97204 -0.99946
2.62313 -0.96943 -0.99137
2.62088 -0.97456 -0.99126
2.62088 -0.98053 -0.99200
2.62089 -0.98651 -0.99274
2.62086 -0.99249 -0.99349
2.62086 -0.99849 -0.99424
2.62085 -1.00449 -0.99500
2.62085 -1.01051 -0.99576
2.62081 -1.01652 -0.99652
2.62082 -1.02255 -0.99729
2.62082 -1.02860 -0.99808
2.62080 -1.03465 -0.99885
2.62080 -1.04071 -0.99964
2.62079 -1.04678 -1.00044
2.62079 -1.05286 -1.00124
2.62078 -1.05895 -1.00204
1.80880 -0.96944 -0.72751
1.79781 -0.96819 -0.72387
1.79238 -0.96989 -0.72246
1.78162 -0.96868 -0.71890
1.77629 -0.97039 -0.71754
1.71929 0.93925 -0.70004
1.71928 0.93479 -0.69927
1.71928 0.93034 -0.69851
1.71928 0.92590 -0.69776
1.71931 0.92148 -0.69702
1.71932 0.91706 -0.69628
1.71932 0.91265 -0.69554
1.71933 0.90825 -0.69481
1.71935 0.90387 -0.69408
1.71935 0.89949 -0.69336
1.71934 0.89511 -0.69263
1.72935 0.89593 -0.69594
1.73482 0.89437 -0.69742
1.74587 0.89565 -0.70114
1.75706 0.89695 -0.70491
1.76271 0.89540 -0.70646
1.77413 0.89674 -0.71032
1.77989 0.89518 -0.71190
1.79151 0.89654 -0.71583
1.79741 0.89500 -0.71747
1.80927 0.89640 -0.72149
1.81525 0.89485 -0.72316
2.62221 1.01103 -1.00421
2.62222 1.00501 -1.00344
2.62222 0.99900 -1.00267
2.62222 0.99300 -1.00191
2.62225 0.98702 -1.00117
2.62224 0.98104 -1.00041
2.62224 0.97506 -0.99967
2.62224 0.96910 -0.99893
2.62228 0.96315 -0.99820
2.62228 0.95721 -0.99748
2.62229 0.95127 -0.99675
2.62229 0.94534 -0.99603
2.62231 0.93943 -0.99532
2.62231 0.93351 -0.99461
2.62230 0.92761 -0.99391
2.62230 0.92171 -0.99320
2.62234 0.91583 -0.99252
2.62234 0.90995 -0.99183
2.62235 0.90408 -0.99115
2.62235 0.89822 -0.99047
2.63290 0.89595 -0.99377
2.65832 0.89868 -1.00269
2.67121 0.89709 -1.00687
2.64786 -0.97255 -1.00794
2.62452 -0.96994 -0.99979
2.62226 -0.97507 -0.99968
2.62227 -0.98105 -1.00042
2.62227 -0.98703 -1.00117
2.62225 -0.99301 -1.00192
2.62224 -0.99901 -1.00268
2.62224 -1.00502 -1.00345
2.62223 -1.01104 -1.00422
2.62220 -1.01705 -1.00498
2.62220 -1.02309 -1.00576
2.62220 -1.02914 -1.00655
2.62218 -1.03519 -1.00734
2.62218 -1.04126 -1.00813
2.62217 -1.04733 -1.00894
1.80975 -0.96996 -0.73369
1.79875 -0.96870 -0.73001
1.79332 -0.97040 -0.72860
1.78256 -0.96919 -0.72501
1.77723 -0.97090 -0.72363
1.71896 0.93907 -0.70544
1.71896 0.93461 -0.70467
1.71895 0.93016 -0.70391
1.71895 0.92572 -0.70315
1.71899 0.92131 -0.70241
1.71899 0.91689 -0.70166
1.71900 0.91248 -0.70091
1.71900 0.90808 -0.70017
1.71902 0.90370 -0.69944
1.71902 0.89931 -0.69871
1.71902 0.89494 -0.69798
1.72902 0.89576 -0.70131
1.73449 0.89420 -0.70281
1.74554 0.89548 -0.70656
1.75673 0.89678 -0.71036
1.76238 0.89523 -0.71191
1.77380 0.89657 -0.71580
1.77955 0.89501 -0.71740
1.79117 0.89637 -0.72136
1.79707 0.89483 -0.72301
1.80892 0.89623 -0.72706
1.81491 0.89468 -0.72875
2.62171 1.01084 -1.01196
2.62172 1.00482 -1.01119
2.62172 0.99881 -1.01042
2.62173 0.99282 -1.00965
2.62175 0.98683 -1.00890
2.62175 0.98085 -1.00814
2.62174 0.97488 -1.00739
2.62174 0.96891 -1.00664
2.62178 0.96297 -1.00591
2.62178 0.95703 -1.00518
2.62179 0.95109 -1.00445
2.62179 0.94516 -1.00372
2.62181 0.93925 -1.00301
2.62181 0.93333 -1.00229
2.62181 0.92743 -1.00158
2.62180 0.92153 -1.00087
2.62184 0.91566 -1.00019
2.62185 0.90978 -0.99949
2.62185 0.90391 -0.99880
2.62185 0.89805 -0.99812
2.63240 0.89578 -1.00145
2.65781 0.89851 -1.01043
2.67071 0.89692 -1.01465
2.64736 -0.97237 -1.01573
2.62402 -0.96975 -1.00751
2.62177 -0.97489 -1.00740
2.62177 -0.98086 -1.00815
2.62177 -0.98684 -1.00891
2.62175 -0.99282 -1.00966
2.62174 -0.99882 -1.01042
2.62174 -1.00483 -1.01120
2.62173 -1.01085 -1.01197
2.62170 -1.01686 -1.01274
2.62170 -1.02290 -1.01353
2.62170 -1.02895 -1.01432
2.62169 -1.03499 -1.01512
2.62168 -1.04106 -1.01592
1.80941 -0.96977 -0.73935
1.79841 -0.96851 -0.73565
1.79298 -0.97022 -0.73422
1.78222 -0.96901 -0.73061
1.77689 -0.97072 -0.72922
1.71864 0.93890 -0.71086
1.71864 0.93444 -0.71008
1.71863 0.92999 -0.70931
1.71863 0.92555 -0.70854
1.71867 0.92114 -0.70780
1.71867 0.91672 -0.70704
1.71868 0.91231 -0.70629
1.71868 0.90791 -0.70555
1.71870 0.90353 -0.70481
1.71870 0.89915 -0.70407
1.71870 0.89477 -0.70334
1.72870 0.89559 -0.70670
1.73417 0.89403 -0.70820
1.74521 0.89531 -0.71198
1.75640 0.89661 -0.71581
1.76205 0.89506 -0.71738
1.77346 0.89640 -0.72130
1.77922 0.89485 -0.72291
1.79083 0.89621 -0.72690
1.79673 0.89467 -0.72856
1.80858 0.89606 -0.73264
1.81457 0.89451 -0.73434
2.62122 1.01065 -1.01973
2.62123 1.00463 -1.01895
2.62123 0.99863 -1.01817
2.62124 0.99263 -1.01740
2.62126 0.98665 -1.01664
2.62126 0.98067 -1.01588
2.62125 0.97470 -1.01512
2.62125 0.96873 -1.01437
2.62129 0.96279 -1.01363
2.62129 0.95685 -1.01289
2.62130 0.95091 -1.01216
2.62130 0.94499 -1.01143
2.62132 0.93907 -1.01071
2.62132 0.93316 -1.00999
2.62132 0.92726 -1.00927
2.62132 0.92136 -1.00856
2.62135 0.91549 -1.00786
2.62136 0.90961 -1.00716
2.62136 0.90374 -1.00647
2.62136 0.89788 -1.00578
2.63191 0.89562 -1.00914
2.65732 0.89834 -1.01819
2.67021 0.89675 -1.02244
2.64687 -0.97219 -1.02352
2.62353 -0.96957 -1.01525
2.62128 -0.97470 -1.01513
2.62128 -0.98068 -1.01589
2.62128 -0.98666 -1.01665
2.62126 -0.99264 -1.01741
2.62125 -0.99864 -1.01818
2.62125 -1.00464 -1.01896
2.62124 -1.01066 -1.01974
2.62121 -1.01667 -1.02051
2.62121 -1.02271 -1.02131
2.62121 -1.02875 -1.02211
2.62120 -1.03480 -1.02291
1.80907 -0.96959 -0.74503
1.79808 -0.96833 -0.74130
1.79265 -0.97004 -0.73986
1.78189 -0.96883 -0.73622
1.77656 -0.97054 -0.73481
1.71831 0.93872 -0.71628
1.71831 0.93426 -0.71550
1.71831 0.92981 -0.71472
1.71831 0.92537 -0.71395
1.71834 0.92096 -0.71320
1.71835 0.91655 -0.71244
1.71835 0.91214 -0.71168
1.71835 0.90774 -0.71093
1.71837 0.90336 -0.71019
1.71837 0.89898 -0.70944
1.71837 0.89460 -0.70870
1.72837 0.89542 -0.71209
1.73384 0.89386 -0.71360
1.74488 0.89514 -0.71741
1.75607 0.89645 -0.72127
1.76171 0.89489 -0.72285
1.77313 0.89623 -0.72680
1.77888 0.89468 -0.72842
1.79049 0.89604 -0.73244
1.79639 0.89450 -0.73412
1.80824 0.89589 -0.73823
1.81423 0.89434 -0.73994
2.62073 1.01046 -1.02751
2.62073 1.00444 -1.02672
2.62074 0.99844 -1.02594
2.62074 0.99244 -1.02516
2.62076 0.98646 -1.02440
2.62076 0.98048 -1.02363
2.62076 0.97451 -1.02286
2.62076 0.96855 -1.02210
2.62079 0.96261 -1.02136
2.62080 0.95667 -1.02062
2.62080 0.95073 -1.01988
2.62081 0.94481 -1.01914
2.62082 0.93889 -1.01842
2.62082 0.93298 -1.01769
2.62082 0.92708 -1.01697
2.62082 0.92119 -1.01625
2.62085 0.91531 -1.01555
2.62086 0.90944 -1.01485
2.62086 0.90357 -1.01415
2.62087 0.89771 -1.01345
2.63141 0.89545 -1.01683
2.65682 0.89817 -1.02595
2.66970 0.89658 -1.03023
2.62303 -0.96939 -1.02299
2.62078 -0.97452 -1.02287
2.62078 -0.98049 -1.02363
2.62078 -0.98647 -1.02440
2.62076 -0.99245 -1.02517
2.62076 -0.99845 -1.02595
2.62075 -1.00445 -1.02673
2.62075 -1.01047 -1.02752
2.62071 -1.01648 -1.02830
2.62072 -1.02251 -1.02910
2.62072 -1.02856 -1.02991
1.80873 -0.96941 -0.75071
1.79774 -0.96815 -0.74695
1.79231 -0.96985 -0.74550
1.78155 -0.96864 -0.74183
1.77622 -0.97035 -0.74042
1.71923 0.93922 -0.72223
1.71923 0.93476 -0.72144
1.71922 0.93031 -0.72066
1.71922 0.92587 -0.71988
1.71926 0.92145 -0.71912
1.71926 0.91703 -0.71836
1.71927 0.91262 -0.71759
1.71927 0.90822 -0.71684
1.71929 0.90384 -0.71609
1.71929 0.89946 -0.71534
1.71929 0.89508 -0.71459
1.72929 0.89590 -0.71800
1.73477 0.89434 -0.71953
1.74582 0.89562 -0.72337
1.75700 0.89692 -0.72726
1.76265 0.89537 -0.72886
1.77407 0.89671 -0.73284
1.77983 0.89515 -0.73447
1.79145 0.89651 -0.73853
1.79735 0.89498 -0.74022
1.80921 0.89637 -0.74436
1.81520 0.89482 -0.74609
2.62212 1.01100 -1.03605
2.62213 1.00498 -1.03525
2.62214 0.99897 -1.03446
2.62214 0.99297 -1.03368
2.62216 0.98699 -1.03291
2.62216 0.98101 -1.03213
2.62216 0.97503 -1.03136
2.62215 0.96906 -1.03060
2.62219 0.96312 -1.02985
2.62220 0.95718 -1.02910
2.62220 0.95124 -1.02835
2.62220 0.94531 -1.02761
2.62222 0.93940 -1.02688
2.62222 0.93348 -1.02614
2.62222 0.92758 -1.02542
2.62222 0.92168 -1.02469
2.62225 0.91580 -1.02399
2.62226 0.90992 -1.02328
2.62226 0.90405 -1.02257
2.62227 0.89819 -1.02187
2.63281 0.89592 -1.02528
2.65823 0.89865 -1.03448
2.62443 -0.96991 -1.03149
2.62218 -0.97504 -1.03137
2.62218 -0.98101 -1.03214
2.62218 -0.98700 -1.03292
2.62216 -0.99298 -1.03369
2.62216 -0.99898 -1.03447
2.62215 -1.00499 -1.03526
2.62215 -1.01101 -1.03605
2.62211 -1.01702 -1.03684
2.62211 -1.02306 -1.03765
1.80970 -0.96992 -0.75695
1.79869 -0.96866 -0.75316
1.79327 -0.97037 -0.75170
1.78250 -0.96916 -0.74799
1.77717 -0.97087 -0.74657
1.71891 0.93904 -0.72767
1.71890 0.93458 -0.72688
1.71890 0.93013 -0.72609
1.71890 0.92569 -0.72531
1.71894 0.92128 -0.72454
1.71894 0.91686 -0.72377
1.71894 0.91245 -0.72300
1.71895 0.90805 -0.72224
1.71897 0.90367 -0.72149
1.71897 0.89929 -0.72073
1.71896 0.89491 -0.71998
1.72897 0.89573 -0.72341
1.73444 0.89417 -0.72495
1.74549 0.89545 -0.72882
1.75667 0.89675 -0.73274
1.76232 0.89520 -0.73435
1.77374 0.89654 -0.73836
1.77949 0.89499 -0.74001
1.79111 0.89635 -0.74409
1.79701 0.89481 -0.74580
1.80887 0.89620 -0.74997
1.81485 0.89465 -0.75171
2.62163 1.01081 -1.04385
2.62164 1.00479 -1.04305
2.62164 0.99878 -1.04226
2.62165 0.99279 -1.04147
2.62167 0.98680 -1.04069
2.62167 0.98082 -1.03991
2.62166 0.97485 -1.03913
2.62166 0.96888 -1.03836
2.62170 0.96294 -1.03761
2.62170 0.95700 -1.03685
2.62171 0.95106 -1.03610
2.62171 0.94513 -1.03535
2.62173 0.93922 -1.03462
2.62173 0.93331 -1.03388
2.62173 0.92740 -1.03314
2.62172 0.92150 -1.03241
2.62176 0.91563 -1.03171
2.62176 0.90975 -1.03099
2.62177 0.90388 -1.03028
2.62177 0.89802 -1.02957
2.63232 0.89576 -1.03301
2.65773 0.89848 -1.04227
2.62394 -0.96972 -1.03926
2.62169 -0.97486 -1.03914
2.62169 -0.98083 -1.03992
2.62169 -0.98681 -1.04070
2.62167 -0.99279 -1.04148
2.62166 -0.99879 -1.04227
2.62166 -1.00480 -1.04306
2.62165 -1.01082 -1.04386
2.62162 -1.01683 -1.04465
1.80935 -0.96974 -0.76265
1.79836 -0.96848 -0.75883
1.79293 -0.97019 -0.75736
1.78217 -0.96898 -0.75363
1.77684 -0.97069 -0.75220
1.71858 0.93886 -0.73312
1.71858 0.93440 -0.73232
1.71857 0.92995 -0.73153
1.71857 0.92551 -0.73074
1.71861 0.92110 -0.72997
1.71861 0.91669 -0.72919
1.71862 0.91228 -0.72842
1.71862 0.90788 -0.72765
1.71864 0.90350 -0.72689
1.71864 0.89911 -0.72613
1.71864 0.89474 -0.72537
1.72864 0.89556 -0.72883
1.73411 0.89400 -0.73038
1.74515 0.89528 -0.73428
1.75634 0.89658 -0.73823
1.76199 0.89503 -0.73985
1.77340 0.89637 -0.74389
1.77915 0.89481 -0.74555
1.79077 0.89617 -0.74966
1.79667 0.89464 -0.75138
1.80852 0.89603 -0.75559
1.81451 0.89448 -0.75734
2.62113 1.01061 -1.05167
2.62114 1.00460 -1.05086
2.62114 0.99859 -1.05006
2.62115 0.99260 -1.04927
2.62117 0.98661 -1.04848
2.62117 0.98063 -1.04770
2.62116 0.97466 -1.04691
2.62116 0.96870 -1.04614
2.62120 0.96276 -1.04538
2.62120 0.95681 -1.04462
2.62121 0.95088 -1.04386
2.62121 0.94495 -1.04311
2.62123 0.93904 -1.04236
2.62123 0.93313 -1.04162
2.62123 0.92722 -1.04088
2.62122 0.92133 -1.04015
2.62126 0.91546 -1.03943
2.62126 0.90958 -1.03871
2.62127 0.90371 -1.03799
2.62127 0.89785 -1.03728
2.63181 0.89558 -1.04074
2.65723 0.89831 -1.05008
2.62344 -0.96954 -1.04704
2.62118 -0.97467 -1.04692
2.62119 -0.98064 -1.04770
2.62119 -0.98662 -1.04849
2.62117 -0.99260 -1.04928
2.62116 -0.99860 -1.05007
2.62116 -1.00461 -1.05087
2.62115 -1.01062 -1.05168
1.80901 -0.96956 -0.76837
1.79801 -0.96830 -0.76452
1.79259 -0.97000 -0.76303
1.78183 -0.96879 -0.75928
1.77650 -0.97050 -0.75783
1.71825 0.93868 -0.73858
1.71824 0.93422 -0.73777
1.71824 0.92977 -0.73697
1.71824 0.92534 -0.73617
1.71828 0.92093 -0.73540
1.71828 0.91651 -0.73462
1.71828 0.91210 -0.73384
1.71829 0.90770 -0.73306
1.71831 0.90332 -0.73230
1.71831 0.89894 -0.73153
1.71830 0.89457 -0.73076
1.72830 0.89538 -0.73425
1.73377 0.89383 -0.73582
1.74482 0.89511 -0.73974
1.75600 0.89641 -0.74372
1.76165 0.89486 -0.74535
1.77306 0.89620 -0.74942
1.77881 0.89464 -0.75110
1.79042 0.89600 -0.75524
1.79632 0.89446 -0.75697
1.80817 0.89586 -0.76121
1.81416 0.89431 -0.76298
2.51880 1.23541 -1.05829
2.51883 1.22919 -1.05726
2.51883 1.22295 -1.05623
2.51883 1.21673 -1.05521
2.52870 1.21527 -1.05833
2.52875 1.20907 -1.05733
2.52875 1.20287 -1.05633
2.52876 1.19667 -1.05533
2.52876 1.19049 -1.05433
2.53875 1.18900 -1.05750
2.53874 1.18281 -1.05651
2.53874 1.17663 -1.05553
2.53874 1.17047 -1.05455
2.54882 1.16894 -1.05777
2.54882 1.16278 -1.05680
2.54883 1.15663 -1.05584
2.54883 1.15049 -1.05489
2.55897 1.14891 -1.05813
2.55897 1.14277 -1.05718
2.55897 1.13663 -1.05624
2.55896 1.13051 -1.05531
2.55901 1.12442 -1.05439
2.56921 1.12277 -1.05767
2.56921 1.11666 -1.05675
2.56922 1.11056 -1.05584
2.56924 1.10448 -1.05494
2.57951 1.10278 -1.05825
2.57951 1.09669 -1.05734
2.57951 1.09060 -1.05645
2.57955 1.08454 -1.05557
2.57956 1.07848 -1.05469
2.58992 1.07673 -1.05805
2.58993 1.07066 -1.05717
2.58995 1.06461 -1.05631
2.58994 1.05856 -1.05544
2.58994 1.05252 -1.05458
2.60042 1.05072 -1.05799
2.60042 1.04468 -1.05714
2.60043 1.03864 -1.05629
2.60043 1.03262 -1.05545
2.60044 1.02661 -1.05462
2.61098 1.02474 -1.05806
2.61098 1.01871 -1.05724
2.61098 1.01270 -1.05641
2.61101 1.00671 -1.05561
2.61102 1.00072 -1.05480
2.62064 0.99840 -1.05788
2.62064 0.99240 -1.05708
2.62066 0.98642 -1.05629
2.62066 0.98044 -1.05549
2.62066 0.97447 -1.05470
2.62065 0.96851 -1.05392
2.62069 0.96257 -1.05316
2.62070 0.95663 -1.05239
2.62070 0.95069 -1.05163
2.62070 0.94477 -1.05087
2.62072 0.93886 -1.05012
2.62072 0.93295 -1.04937
2.62072 0.92704 -1.04863
2.62072 0.92115 -1.04789
2.62075 0.91528 -1.04717
2.62076 0.90940 -1.04644
2.62076 0.90354 -1.04572
2.62076 0.89768 -1.04500
2.63131 0.89541 -1.04849
2.65414 0.89726 -1.05687
2.65413 0.89135 -1.05615
2.65413 0.88545 -1.05545
2.65417 0.87956 -1.05476
2.66514 0.87729 -1.05842
2.66514 0.87138 -1.05773
2.66514 0.86549 -1.05704
2.66516 0.85960 -1.05636
2.66516 0.85372 -1.05568
2.66515 0.84785 -1.05501
2.67621 0.84547 -1.05871
2.67624 0.83960 -1.05806
2.67625 0.83373 -1.05740
2.67625 0.82786 -1.05674
2.67625 0.82200 -1.05609
2.67627 0.81615 -1.05545
2.67626 0.81030 -1.05481
2.68741 0.80781 -1.05856
2.68744 0.80197 -1.05794
2.68744 0.79612 -1.05731
2.68745 0.79028 -1.05669
2.68745 0.78444 -1.05607
2.68745 0.77861 -1.05546
2.68746 0.77279 -1.05485
2.69870 0.77018 -1.05866
2.69870 0.76435 -1.05806
2.69873 0.75853 -1.05747
2.69873 0.75271 -1.05688
2.69874 0.74690 -1.05629
2.69874 0.74109 -1.05571
2.69875 0.73529 -1.05514
2.69875 0.72950 -1.05457
2.71008 0.72675 -1.05843
2.71008 0.72094 -1.05786
2.71011 0.71515 -1.05731
2.71011 0.70935 -1.05676
2.71012 0.70357 -1.05621
2.71012 0.69778 -1.05566
2.71013 0.69201 -1.05513
2.71013 0.68624 -1.05459
2.72155 0.68334 -1.05850
2.72155 0.67756 -1.05797
2.72158 0.67179 -1.05746
2.72159 0.66602 -1.05694
2.72159 0.66025 -1.05643
2.72159 0.65449 -1.05592
2.72160 0.64874 -1.05541
2.72160 0.64299 -1.05491
2.72160 0.63724 -1.05442
2.73312 0.63418 -1.05839
2.73315 0.62843 -1.05791
2.73315 0.62268 -1.05743
2.73316 0.61693 -1.05695
2.73316 0.61119 -1.05648
2.73316 0.60545 -1.05601
2.73316 0.59972 -1.05554
2.73316 0.59399 -1.05508
2.73316 0.58827 -1.05462
2.74481 0.58504 -1.05867
2.74482 0.57930 -1.05822
2.74482 0.57357 -1.05777
2.74482 0.56784 -1.05734
2.74483 0.56212 -1.05690
2.74482 0.55640 -1.05647
2.74482 0.55069 -1.05604
2.74485 0.54499 -1.05563
2.74485 0.53928 -1.05522
2.74485 0.53358 -1.05480
2.74485 0.52789 -1.05440
2.75658 0.52443 -1.05850
2.75658 0.51872 -1.05810
2.75658 0.51301 -1.05770
2.75658 0.50731 -1.05731
2.75660 0.50162 -1.05693
2.75661 0.49592 -1.05655
2.75661 0.49024 -1.05617
2.75661 0.48455 -1.05580
2.75661 0.47887 -1.05543
2.75661 0.47319 -1.05507
2.75661 0.46752 -1.05471
2.76846 0.45814 -1.05853
2.76846 0.45246 -1.05818
2.76846 0.44677 -1.05784
2.76846 0.44109 -1.05750
2.76846 0.43542 -1.05717
2.76846 0.42975 -1.05684
2.76846 0.42408 -1.05651
2.76846 0.41841 -1.05619
2.76848 0.41275 -1.05588
2.76849 0.40710 -1.05557
2.76849 0.40144 -1.05526
2.76849 0.39579 -1.05496
2.76849 0.39014 -1.05466
2.78041 0.38048 -1.05861
2.78041 0.37482 -1.05832
2.78043 0.36916 -1.05805
2.78044 0.36351 -1.05777
2.78044 0.35785 -1.05750
2.78044 0.35220 -1.05723
2.78044 0.34655 -1.05696
2.78044 0.34091 -1.05670
2.78043 0.33526 -1.05644
2.78043 0.32962 -1.05619
2.78046 0.32399 -1.05595
2.78046 0.31835 -1.05571
2.78046 0.31272 -1.05547
2.78046 0.30709 -1.05523
2.78046 0.30146 -1.05500
2.78046 0.29584 -1.05477
2.78045 0.29021 -1.05455
2.79250 0.28018 -1.05869
2.79250 0.27454 -1.05848
2.79250 0.26891 -1.05827
2.79250 0.26327 -1.05807
2.79250 0.25764 -1.05787
2.79250 0.25201 -1.05768
2.79250 0.24638 -1.05749
2.79252 0.24075 -1.05731
2.79252 0.23512 -1.05713
2.79252 0.22950 -1.05696
2.79252 0.22388 -1.05678
2.79252 0.21826 -1.05662
2.79252 0.21264 -1.05645
2.79251 0.20702 -1.05629
2.79251 0.20141 -1.05614
2.79253 0.19580 -1.05599
2.79253 0.19019 -1.05585
2.79253 0.18458 -1.05571
2.79253 0.17897 -1.05557
2.79253 0.17336 -1.05544
2.79253 0.16775 -1.05531
2.79253 0.16215 -1.05518
2.79252 0.15654 -1.05506
2.79254 0.15094 -1.05495
2.79254 0.14534 -1.05484
2.79254 0.13974 -1.05473
2.79254 0.13415 -1.05463
2.79254 0.12855 -1.05453
2.79254 0.12295 -1.05443
2.80466 0.11225 -1.05883
2.80468 0.10663 -1.05876
2.80468 0.10101 -1.05868
2.80468 0.09540 -1.05860
2.80468 0.08978 -1.05853
2.80468 0.08417 -1.05847
2.80467 0.07855 -1.05840
2.80467 0.07294 -1.05835
2.80467 0.06732 -1.05829
2.80470 0.06171 -1.05825
2.80470 0.05610 -1.05821
2.80470 0.05049 -1.05817
2.80469 0.04488 -1.05813
2.80469 0.03927 -1.05810
2.80469 0.03366 -1.05807
2.80468 0.02805 -1.05805
2.80468 0.02244 -1.05802
2.80468 0.01683 -1.05801
2.80469 0.01122 -1.05800
2.80469 0.00561 -1.05800
2.80469 0.00000 -1.05800
2.80469 -0.00561 -1.05800
2.80469 -0.01122 -1.05800
2.80468 -0.01683 -1.05801
2.80468 -0.02244 -1.05802
2.80468 -0.02805 -1.05805
2.80469 -0.03366 -1.05807
2.80469 -0.03927 -1.05810
2.80469 -0.04488 -1.05813
2.80470 -0.05049 -1.05817
2.80470 -0.05610 -1.05821
2.80470 -0.06171 -1.05825
2.80467 -0.06732 -1.05829
2.80467 -0.07294 -1.05835
2.80467 -0.07855 -1.05840
2.80468 -0.08417 -1.05847
2.80468 -0.08978 -1.05853
2.80468 -0.09540 -1.05860
2.80468 -0.10101 -1.05868
2.80468 -0.10663 -1.05876
2.80466 -0.11225 -1.05883
2.79254 -0.12295 -1.05443
2.79254 -0.12855 -1.05453
2.79254 -0.13414 -1.05463
2.79254 -0.13974 -1.05473
2.79254 -0.14534 -1.05484
2.79254 -0.15094 -1.05495
2.79252 -0.15654 -1.05506
2.79253 -0.16215 -1.05518
2.79253 -0.16775 -1.05531
2.79253 -0.17336 -1.05544
2.79253 -0.17897 -1.05557
2.79253 -0.18458 -1.05571
2.79253 -0.19019 -1.05585
2.79253 -0.19580 -1.05599
2.79251 -0.20141 -1.05614
2.79251 -0.20702 -1.05629
2.79252 -0.21264 -1.05645
2.79252 -0.21826 -1.05662
2.79252 -0.22388 -1.05678
2.79252 -0.22950 -1.05695
2.79252 -0.23512 -1.05713
2.79252 -0.24075 -1.05731
2.79250 -0.24638 -1.05749
2.79250 -0.25201 -1.05768
2.79250 -0.25764 -1.05787
2.79250 -0.26327 -1.05807
2.79250 -0.26891 -1.05827
2.79250 -0.27454 -1.05848
2.79250 -0.28018 -1.05869
2.78045 -0.29021 -1.05455
2.78046 -0.29584 -1.05477
2.78046 -0.30146 -1.05500
2.78046 -0.30709 -1.05523
2.78046 -0.31272 -1.05547
2.78046 -0.31835 -1.05571
2.78045 -0.32399 -1.05595
2.78043 -0.32962 -1.05619
2.78043 -0.33526 -1.05644
2.78044 -0.34091 -1.05670
2.78044 -0.34655 -1.05696
2.78044 -0.35220 -1.05723
2.78044 -0.35785 -1.05750
2.78043 -0.36351 -1.05777
2.78043 -0.36916 -1.05805
2.78041 -0.37482 -1.05832
2.78041 -0.38048 -1.05861
2.76849 -0.39014 -1.05466
2.76849 -0.39579 -1.05496
2.76849 -0.40144 -1.05526
2.76848 -0.40710 -1.05557
2.76848 -0.41275 -1.05588
2.76846 -0.41841 -1.05619
2.76846 -0.42408 -1.05651
2.76846 -0.42975 -1.05684
2.76846 -0.43542 -1.05717
2.76846 -0.44109 -1.05750
2.76846 -0.44677 -1.05784
2.76846 -0.45246 -1.05818
2.76845 -0.45814 -1.05853
2.75661 -0.46752 -1.05471
2.75661 -0.47319 -1.05507
2.75661 -0.47887 -1.05543
2.75661 -0.48455 -1.05580
2.75661 -0.49024 -1.05617
2.75660 -0.49592 -1.05655
2.75660 -0.50162 -1.05693
2.75658 -0.50731 -1.05731
2.75658 -0.51301 -1.05770
2.75658 -0.51872 -1.05810
2.75658 -0.52443 -1.05850
2.74485 -0.52789 -1.05440
2.74485 -0.53358 -1.05480
2.74485 -0.53928 -1.05522
2.74484 -0.54499 -1.05563
2.74482 -0.55069 -1.05604
2.74482 -0.55640 -1.05647
2.74482 -0.56212 -1.05690
2.74482 -0.56784 -1.05733
2.74482 -0.57357 -1.05777
2.74481 -0.57930 -1.05822
2.74481 -0.58504 -1.05867
2.73316 -0.58827 -1.05462
2.73316 -0.59399 -1.05508
2.73316 -0.59972 -1.05554
2.73316 -0.60545 -1.05601
2.73316 -0.61119 -1.05647
2.73315 -0.61693 -1.05695
2.73315 -0.62268 -1.05743
2.73315 -0.62843 -1.05791
2.73312 -0.63418 -1.05839
2.72160 -0.63724 -1.05442
2.72160 -0.64299 -1.05491
2.72160 -0.64874 -1.05541
2.72159 -0.65449 -1.05592
2.72159 -0.66025 -1.05643
2.72158 -0.66602 -1.05694
2.72158 -0.67179 -1.05746
2.72155 -0.67756 -1.05797
2.72155 -0.68334 -1.05850
2.71013 -0.68624 -1.05459
2.71013 -0.69201 -1.05512
2.71012 -0.69778 -1.05566
2.71011 -0.70356 -1.05621
2.71011 -0.70935 -1.05676
2.71011 -0.71515 -1.05731
2.71008 -0.72094 -1.05786
2.71008 -0.72675 -1.05843
2.69875 -0.72950 -1.05457
2.69875 -0.73529 -1.05514
2.69874 -0.74109 -1.05571
2.69873 -0.74690 -1.05629
2.69873 -0.75271 -1.05688
2.69873 -0.75853 -1.05747
2.69870 -0.76435 -1.05806
2.69870 -0.77018 -1.05866
2.68746 -0.77279 -1.05485
2.68745 -0.77861 -1.05546
2.68745 -0.78444 -1.05607
2.68744 -0.79027 -1.05669
2.68744 -0.79612 -1.05731
2.68744 -0.80197 -1.05794
2.68741 -0.80781 -1.05856
2.67626 -0.81030 -1.05481
2.67626 -0.81615 -1.05545
2.67625 -0.82200 -1.05609
2.67625 -0.82786 -1.05674
2.67624 -0.83373 -1.05740
2.67624 -0.83960 -1.05806
2.67620 -0.84547 -1.05871
2.66515 -0.84785 -1.05500
2.66515 -0.85372 -1.05568
2.66515 -0.85960 -1.05636
2.66514 -0.86549 -1.05704
2.66514 -0.87138 -1.05772
2.66513 -0.87729 -1.05842
2.65417 -0.87956 -1.05476
2.65413 -0.88545 -1.05544
2.65413 -0.89135 -1.05615
2.65413 -0.89726 -1.05687
2.65413 -0.90318 -1.05758
2.65412 -0.90910 -1.05830
2.64324 -0.91129 -1.05469
2.64324 -0.91720 -1.05541
2.64323 -0.92313 -1.05615
2.64320 -0.92905 -1.05687
2.64320 -0.93500 -1.05762
2.64320 -0.94095 -1.05837
2.63242 -0.94305 -1.05481
2.63240 -0.94899 -1.05556
2.63239 -0.95494 -1.05632
2.63239 -0.96090 -1.05709
2.63238 -0.96687 -1.05786
2.62293 -0.96935 -1.05484
2.62068 -0.97448 -1.05471
2.62068 -0.98045 -1.05550
2.62068 -0.98643 -1.05629
2.62066 -0.99241 -1.05708
2.62066 -0.99841 -1.05789
2.61101 -1.00072 -1.05480
2.61101 -1.00671 -1.05561
2.61097 -1.01270 -1.05641
2.61098 -1.01871 -1.05723
2.61098 -1.02474 -1.05806
2.60043 -1.02660 -1.05462
2.60043 -1.03262 -1.05545
2.60043 -1.03864 -1.05629
2.60042 -1.04468 -1.05714
2.60042 -1.05072 -1.05799
2.58994 -1.05252 -1.05458
2.58994 -1.05856 -1.05544
2.58994 -1.06461 -1.05631
2.58992 -1.07066 -1.05717
2.58992 -1.07673 -1.05804
2.57956 -1.07848 -1.05469
2.57955 -1.08454 -1.05557
2.57951 -1.09060 -1.05644
2.57951 -1.09669 -1.05734
2.57951 -1.10278 -1.05825
2.56924 -1.10447 -1.05493
2.56922 -1.11056 -1.05584
2.56921 -1.11666 -1.05675
2.56921 -1.12277 -1.05767
2.55901 -1.12441 -1.05439
2.55896 -1.13051 -1.05530
2.55896 -1.13663 -1.05624
2.55897 -1.14276 -1.05718
2.55897 -1.14891 -1.05813
2.54883 -1.15049 -1.05489
2.54883 -1.15663 -1.05584
2.54882 -1.16278 -1.05680
2.54881 -1.16894 -1.05777
2.53874 -1.17047 -1.05455
2.53874 -1.17663 -1.05553
2.53874 -1.18281 -1.05651
2.53874 -1.18899 -1.05750
2.52876 -1.19049 -1.05433
2.52876 -1.19667 -1.05532
2.52875 -1.20287 -1.05632
2.52874 -1.20907 -1.05733
2.52870 -1.21527 -1.05833
2.51882 -1.21673 -1.05521
2.51883 -1.22295 -1.05623
2.51883 -1.22918 -1.05726
2.51880 -1.23541 -1.05828
2.50899 -1.23683 -1.05520
2.50899 -1.24307 -1.05624
2.50898 -1.24933 -1.05729
2.50894 -1.25557 -1.05833
2.49921 -1.25696 -1.05528
2.49922 -1.26324 -1.05635
2.49919 -1.26950 -1.05741
2.48954 -1.27087 -1.05440
2.48953 -1.27715 -1.05548
2.48952 -1.28344 -1.05656
2.48952 -1.28975 -1.05765
2.47990 -1.29106 -1.05466
2.47990 -1.29737 -1.05576
2.47990 -1.30370 -1.05687
2.47988 -1.31002 -1.05797
2.47037 -1.31132 -1.05503
2.47036 -1.31766 -1.05615
1.80866 -0.96937 -0.77408
1.79767 -0.96811 -0.77020
1.79224 -0.96982 -0.76871
1.78148 -0.96861 -0.76493
1.77615 -0.97032 -0.76347
1.71919 0.93920 -0.74460
1.71919 0.93474 -0.74378
1.71919 0.93029 -0.74298
1.71918 0.92585 -0.74217
1.71922 0.92143 -0.74139
1.71923 0.91702 -0.74060
1.71923 0.91261 -0.73982
1.71924 0.90820 -0.73903
1.71925 0.90382 -0.73826
1.71925 0.89944 -0.73749
1.71925 0.89506 -0.73672
1.72925 0.89588 -0.74024
1.73473 0.89432 -0.74181
1.74578 0.89560 -0.74577
1.75697 0.89690 -0.74978
1.76262 0.89535 -0.75143
1.77404 0.89669 -0.75553
1.77979 0.89513 -0.75722
1.79141 0.89649 -0.76140
1.79731 0.89496 -0.76314
1.80917 0.89635 -0.76741
1.81516 0.89480 -0.76919
2.48141 1.21708 -1.05049
2.49103 1.21562 -1.05353
2.49102 1.20945 -1.05250
2.49102 1.20330 -1.05148
2.49102 1.19716 -1.05047
2.50072 1.19567 -1.05355
2.50072 1.18954 -1.05255
2.50073 1.18341 -1.05155
2.50073 1.17730 -1.05056
2.51049 1.17576 -1.05367
2.51049 1.16965 -1.05269
2.51049 1.16354 -1.05171
2.51048 1.15744 -1.05073
2.52034 1.15588 -1.05389
2.52034 1.14979 -1.05293
2.52035 1.14370 -1.05197
2.52035 1.13763 -1.05102
2.52038 1.13158 -1.05009
2.53026 1.12994 -1.05326
2.53026 1.12388 -1.05232
2.53025 1.11782 -1.05139
2.53030 1.11180 -1.05048
2.54026 1.11012 -1.05369
2.54027 1.10408 -1.05278
2.54027 1.09805 -1.05187
2.54030 1.09203 -1.05097
2.55033 1.09031 -1.05422
2.55033 1.08428 -1.05332
2.55033 1.07826 -1.05243
2.55037 1.07227 -1.05156
2.55038 1.06628 -1.05068
2.56050 1.06450 -1.05397
2.56051 1.05850 -1.05310
2.56053 1.05252 -1.05224
2.56052 1.04653 -1.05137
2.56052 1.04056 -1.05052
2.57076 1.03874 -1.05386
2.57076 1.03276 -1.05302
2.57077 1.02680 -1.05217
2.57077 1.02084 -1.05134
2.57078 1.01490 -1.05051
2.58108 1.01300 -1.05389
2.58107 1.00705 -1.05306
2.58107 1.00110 -1.05224
2.58111 0.99518 -1.05144
2.58111 0.98926 -1.05064
2.59148 0.98729 -1.05405
2.59149 0.98136 -1.05325
2.59151 0.97545 -1.05247
2.59150 0.96954 -1.05168
2.59150 0.96363 -1.05089
2.60195 0.96160 -1.05434
2.60198 0.95570 -1.05358
2.60199 0.94980 -1.05281
2.60199 0.94391 -1.05205
2.60200 0.93803 -1.05129
2.60202 0.93216 -1.05054
2.61255 0.93004 -1.05404
2.61254 0.92415 -1.05329
2.61254 0.91828 -1.05255
2.61258 0.91242 -1.05183
2.61258 0.90657 -1.05110
2.61259 0.90072 -1.05037
2.62221 0.89817 -1.05351
2.62322 0.89266 -1.05320
2.62322 0.88681 -1.05249
2.62322 0.88097 -1.05178
2.62322 0.87513 -1.05107
2.62325 0.86932 -1.05039
2.63396 0.86702 -1.05398
2.63397 0.86119 -1.05329
2.63397 0.85537 -1.05261
2.63398 0.84955 -1.05193
2.63398 0.84374 -1.05125
2.63398 0.83793 -1.05058
2.64477 0.83554 -1.05422
2.64481 0.82974 -1.05357
2.64481 0.82394 -1.05291
2.64481 0.81814 -1.05226
2.64482 0.81235 -1.05161
2.64483 0.80656 -1.05097
2.64483 0.80079 -1.05033
2.65571 0.79828 -1.05402
2.65574 0.79251 -1.05340
2.65574 0.78673 -1.05277
2.65574 0.78095 -1.05215
2.65575 0.77519 -1.05154
2.65575 0.76943 -1.05093
2.65576 0.76367 -1.05033
2.66673 0.76106 -1.05406
2.66673 0.75529 -1.05346
2.66676 0.74954 -1.05288
2.66676 0.74379 -1.05229
2.66676 0.73805 -1.05171
2.66677 0.73231 -1.05113
2.66678 0.72658 -1.05056
2.67784 0.72384 -1.05434
2.67784 0.71810 -1.05377
2.67783 0.71236 -1.05321
2.67786 0.70664 -1.05266
2.67787 0.70091 -1.05211
2.67787 0.69519 -1.05156
2.67787 0.68948 -1.05102
2.67788 0.68378 -1.05049
2.68903 0.68090 -1.05433
2.68903 0.67518 -1.05379
2.68903 0.66946 -1.05327
2.68906 0.66376 -1.05276
2.68906 0.65806 -1.05224
2.68907 0.65236 -1.05173
2.68907 0.64667 -1.05122
2.68908 0.64099 -1.05072
2.68908 0.63531 -1.05022
2.70032 0.63226 -1.05412
2.70032 0.62657 -1.05362
2.70035 0.62089 -1.05315
2.70035 0.61520 -1.05267
2.70035 0.60952 -1.05219
2.70036 0.60385 -1.05172
2.70036 0.59819 -1.05126
2.70036 0.59252 -1.05079
2.70036 0.58686 -1.05033
2.71170 0.58365 -1.05429
2.71173 0.57798 -1.05385
2.71173 0.57232 -1.05340
2.71173 0.56666 -1.05296
2.71173 0.56100 -1.05252
2.71174 0.55535 -1.05209
2.71174 0.54970 -1.05166
2.71174 0.54405 -1.05124
2.71176 0.53842 -1.05083
2.71176 0.53278 -1.05041
2.72320 0.52938 -1.05443
2.72320 0.52373 -1.05402
2.72320 0.51808 -1.05362
2.72321 0.51244 -1.05322
2.72321 0.50680 -1.05283
2.72320 0.50117 -1.05244
2.72323 0.49554 -1.05206
2.72323 0.48992 -1.05168
2.72323 0.48430 -1.05131
2.72324 0.47868 -1.05094
2.72324 0.47307 -1.05057
2.73477 0.46944 -1.05466
2.73477 0.46381 -1.05430
2.73477 0.45819 -1.05394
2.73479 0.45257 -1.05360
2.73479 0.44695 -1.05325
2.73480 0.44134 -1.05291
2.73480 0.43573 -1.05257
2.73480 0.43012 -1.05224
2.73480 0.42452 -1.05191
2.73480 0.41892 -1.05159
2.73479 0.41332 -1.05127
2.73482 0.40773 -1.05096
2.73482 0.40215 -1.05065
2.73482 0.39656 -1.05034
2.74645 0.39264 -1.05451
2.74646 0.38704 -1.05421
2.74646 0.38144 -1.05391
2.74645 0.37584 -1.05362
2.74645 0.37024 -1.05333
2.74647 0.36466 -1.05306
2.74648 0.35907 -1.05279
2.74648 0.35348 -1.05251
2.74648 0.34790 -1.05224
2.74648 0.34232 -1.05198
2.74648 0.33674 -1.05172
2.74647 0.33117 -1.05146
2.74647 0.32560 -1.05121
2.74650 0.32003 -1.05097
2.74650 0.31446 -1.05073
2.74650 0.30890 -1.05049
2.74650 0.30334 -1.05026
2.75823 0.29905 -1.05451
2.75823 0.29347 -1.05429
2.75822 0.28789 -1.05406
2.75824 0.28232 -1.05385
2.75824 0.27675 -1.05364
2.75825 0.27118 -1.05343
2.75825 0.26561 -1.05322
2.75825 0.26004 -1.05302
2.75824 0.25448 -1.05283
2.75824 0.24891 -1.05263
2.75824 0.24335 -1.05245
2.75826 0.23780 -1.05227
2.75826 0.23224 -1.05209
2.75826 0.22669 -1.05192
2.75826 0.22113 -1.05174
2.75826 0.21558 -1.05158
2.75826 0.21003 -1.05142
2.75826 0.20448 -1.05126
2.75825 0.19894 -1.05110
2.75827 0.19340 -1.05096
2.75827 0.18785 -1.05081
2.75827 0.18231 -1.05067
2.75827 0.17677 -1.05054
2.75827 0.17123 -1.05040
2.75827 0.16570 -1.05027
2.77010 0.16085 -1.05465
2.77009 0.15529 -1.05453
2.77011 0.14973 -1.05442
2.77011 0.14418 -1.05431
2.77011 0.13862 -1.05420
2.77011 0.13307 -1.05410
2.77011 0.12752 -1.05400
2.77011 0.12196 -1.05390
2.77011 0.11641 -1.05381
2.77010 0.11086 -1.05372
2.77012 0.10532 -1.05365
2.77012 0.09977 -1.05357
2.77012 0.09422 -1.05350
2.77012 0.08867 -1.05343
2.77012 0.08313 -1.05336
2.77011 0.07758 -1.05330
2.77011 0.07204 -1.05324
2.77011 0.06650 -1.05319
2.77014 0.06095 -1.05315
2.77014 0.05541 -1.05311
2.77014 0.04987 -1.05307
2.77013 0.04433 -1.05303
2.77013 0.03878 -1.05300
2.77013 0.03324 -1.05297
2.77012 0.02770 -1.05294
2.77012 0.02216 -1.05292
2.77012 0.01662 -1.05291
2.77013 0.01108 -1.05290
2.77013 0.00554 -1.05289
2.77013 0.00000 -1.05289
2.77013 -0.00554 -1.05289
2.77013 -0.01108 -1.05290
2.77012 -0.01662 -1.05291
2.77012 -0.02216 -1.05292
2.77012 -0.02770 -1.05294
2.77013 -0.03324 -1.05297
2.77013 -0.03878 -1.05300
2.77013 -0.04433 -1.05303
2.77014 -0.04987 -1.05307
2.77014 -0.05541 -1.05311
2.77014 -0.06095 -1.05315
2.77011 -0.06650 -1.05319
2.77011 -0.07204 -1.05324
2.77011 -0.07758 -1.05330
2.77012 -0.08313 -1.05336
2.77012 -0.08867 -1.05343
2.77012 -0.09422 -1.05350
2.77012 -0.09977 -1.05357
2.77012 -0.10532 -1.05365
2.77010 -0.11086 -1.05372
2.77011 -0.11641 -1.05381
2.77011 -0.12196 -1.05390
2.77011 -0.12752 -1.05400
2.77011 -0.13307 -1.05410
2.77011 -0.13862 -1.05420
2.77011 -0.14418 -1.05431
2.77011 -0.14973 -1.05442
2.77009 -0.15529 -1.05453
2.77010 -0.16085 -1.05465
2.75827 -0.16570 -1.05027
2.75827 -0.17123 -1.05040
2.75827 -0.17677 -1.05054
2.75827 -0.18231 -1.05067
2.75827 -0.18785 -1.05081
2.75827 -0.19340 -1.05096
2.75825 -0.19894 -1.05110
2.75826 -0.20448 -1.05126
2.75826 -0.21003 -1.05141
2.75826 -0.21558 -1.05158
2.75826 -0.22113 -1.05174
2.75826 -0.22669 -1.05192
2.75826 -0.23224 -1.05209
2.75826 -0.23780 -1.05227
2.75824 -0.24335 -1.05245
2.75824 -0.24891 -1.05263
2.75824 -0.25448 -1.05283
2.75824 -0.26004 -1.05302
2.75825 -0.26561 -1.05322
2.75825 -0.27118 -1.05343
2.75824 -0.27675 -1.05364
2.75824 -0.28232 -1.05385
2.75822 -0.28789 -1.05406
2.75823 -0.29347 -1.05428
2.75823 -0.29905 -1.05451
2.74650 -0.30334 -1.05026
2.74650 -0.30890 -1.05049
2.74650 -0.31446 -1.05073
2.74650 -0.32003 -1.05097
2.74647 -0.32560 -1.05121
2.74647 -0.33117 -1.05146
2.74648 -0.33674 -1.05172
2.74648 -0.34232 -1.05198
2.74648 -0.34790 -1.05224
2.74648 -0.35348 -1.05251
2.74647 -0.35907 -1.05278
2.74647 -0.36465 -1.05306
2.74645 -0.37024 -1.05333
2.74645 -0.37584 -1.05362
2.74645 -0.38144 -1.05391
2.74645 -0.38704 -1.05421
2.74645 -0.39264 -1.05451
2.73482 -0.39656 -1.05034
2.73482 -0.40215 -1.05065
2.73482 -0.40773 -1.05096
2.73479 -0.41332 -1.05127
2.73480 -0.41892 -1.05159
2.73480 -0.42452 -1.05191
2.73480 -0.43012 -1.05224
2.73480 -0.43573 -1.05257
2.73479 -0.44134 -1.05291
2.73479 -0.44695 -1.05325
2.73479 -0.45257 -1.05360
2.73477 -0.45819 -1.05394
2.73477 -0.46381 -1.05429
2.73477 -0.46944 -1.05466
2.72324 -0.47307 -1.05057
2.72323 -0.47868 -1.05094
2.72323 -0.48430 -1.05131
2.72323 -0.48992 -1.05168
2.72323 -0.49554 -1.05206
2.72320 -0.50117 -1.05244
2.72321 -0.50680 -1.05283
2.72321 -0.51244 -1.05322
2.72320 -0.51808 -1.05362
2.72320 -0.52373 -1.05402
2.72320 -0.52938 -1.05443
2.71176 -0.53278 -1.05041
2.71176 -0.53842 -1.05083
2.71173 -0.54405 -1.05124
2.71174 -0.54970 -1.05166
2.71174 -0.55534 -1.05209
2.71173 -0.56100 -1.05252
2.71173 -0.56665 -1.05296
2.71173 -0.57232 -1.05340
2.71173 -0.57798 -1.05385
2.71170 -0.58365 -1.05429
2.70036 -0.58686 -1.05033
2.70036 -0.59252 -1.05079
2.70036 -0.59818 -1.05125
2.70035 -0.60385 -1.05172
2.70035 -0.60952 -1.05219
2.70035 -0.61520 -1.05267
2.70035 -0.62089 -1.05315
2.70032 -0.62657 -1.05362
2.70032 -0.63226 -1.05412
2.68907 -0.63530 -1.05022
2.68908 -0.64099 -1.05072
2.68907 -0.64667 -1.05122
2.68907 -0.65236 -1.05173
2.68906 -0.65806 -1.05224
2.68906 -0.66376 -1.05275
2.68903 -0.66946 -1.05327
2.68903 -0.67518 -1.05379
2.68903 -0.68090 -1.05432
2.67788 -0.68378 -1.05049
2.67787 -0.68948 -1.05102
2.67787 -0.69519 -1.05156
2.67787 -0.70091 -1.05211
2.67786 -0.70664 -1.05266
2.67783 -0.71236 -1.05321
2.67783 -0.71810 -1.05377
2.67784 -0.72384 -1.05434
2.66678 -0.72658 -1.05056
2.66676 -0.73231 -1.05113
2.66676 -0.73805 -1.05171
2.66676 -0.74379 -1.05229
2.66675 -0.74954 -1.05288
2.66672 -0.75529 -1.05346
2.66673 -0.76106 -1.05406
2.65576 -0.76367 -1.05032
2.65575 -0.76943 -1.05093
2.65574 -0.77519 -1.05154
2.65574 -0.78095 -1.05215
2.65574 -0.78672 -1.05277
2.65573 -0.79250 -1.05340
2.65570 -0.79828 -1.05402
2.64482 -0.80078 -1.05033
2.64483 -0.80656 -1.05097
2.64481 -0.81234 -1.05161
2.64481 -0.81814 -1.05226
2.64481 -0.82393 -1.05291
2.64480 -0.82974 -1.05357
2.64477 -0.83554 -1.05422
2.63398 -0.83793 -1.05058
2.63398 -0.84374 -1.05125
2.63398 -0.84955 -1.05193
2.63397 -0.85536 -1.05260
2.63396 -0.86119 -1.05329
2.63396 -0.86702 -1.05398
2.62325 -0.86932 -1.05039
2.62321 -0.87513 -1.05107
2.62322 -0.88097 -1.05178
2.62322 -0.88681 -1.05249
2.62322 -0.89266 -1.05320
2.62321 -0.89851 -1.05391
2.61258 -0.90072 -1.05037
2.61258 -0.90657 -1.05109
2.61258 -0.91242 -1.05182
2.61254 -0.91828 -1.05255
2.61254 -0.92415 -1.05329
2.61254 -0.93004 -1.05404
2.60201 -0.93215 -1.05054
2.60199 -0.93802 -1.05129
2.60199 -0.94391 -1.05205
2.60199 -0.94980 -1.05281
2.60198 -0.95570 -1.05358
2.60194 -0.96160 -1.05434
2.59150 -0.96363 -1.05089
2.59150 -0.96954 -1.05167
2.59150 -0.97545 -1.05246
2.59148 -0.98136 -1.05325
2.59148 -0.98729 -1.05405
2.58111 -0.98926 -1.05064
2.58110 -0.99518 -1.05144
2.58107 -1.00110 -1.05224
2.58107 -1.00705 -1.05306
2.58107 -1.01300 -1.05389
2.57077 -1.01490 -1.05051
2.57077 -1.02084 -1.05134
2.57077 -1.02680 -1.05217
2.57076 -1.03276 -1.05301
2.57076 -1.03873 -1.05386
2.56052 -1.04056 -1.05052
2.56052 -1.04653 -1.05137
2.56052 -1.05252 -1.05224
2.56050 -1.05850 -1.05310
2.56050 -1.06450 -1.05397
2.55037 -1.06628 -1.05068
2.55037 -1.07227 -1.05156
2.55032 -1.07826 -1.05242
2.55033 -1.08428 -1.05332
2.55033 -1.09031 -1.05422
2.54029 -1.09203 -1.05097
2.54027 -1.09805 -1.05187
2.54027 -1.10408 -1.05278
2.54026 -1.11012 -1.05369
2.53029 -1.11180 -1.05048
2.53025 -1.11782 -1.05139
2.53025 -1.12388 -1.05232
2.53026 -1.12994 -1.05326
2.52037 -1.13158 -1.05008
2.52035 -1.13763 -1.05102
2.52034 -1.14370 -1.05197
2.52034 -1.14979 -1.05293
2.52033 -1.15588 -1.05389
2.51048 -1.15744 -1.05073
2.51049 -1.16354 -1.05171
2.51049 -1.16964 -1.05269
2.51049 -1.17576 -1.05367
2.50073 -1.17730 -1.05056
2.50073 -1.18341 -1.05155
2.50072 -1.18953 -1.05255
2.50071 -1.19567 -1.05355
2.49101 -1.19716 -1.05047
2.49102 -1.20330 -1.05148
2.49102 -1.20945 -1.05250
2.49102 -1.21561 -1.05353
2.48141 -1.21707 -1.05049
2.48141 -1.22323 -1.05152
2.48140 -1.22941 -1.05256
2.48139 -1.23559 -1.05360
2.47184 -1.23701 -1.05060
2.47184 -1.24320 -1.05165
2.47185 -1.24940 -1.05271
2.47182 -1.25560 -1.05377
2.46238 -1.25701 -1.05082
2.46237 -1.26322 -1.05189
2.46237 -1.26944 -1.05297
2.45300 -1.27083 -1.05005
2.45295 -1.27703 -1.05112
2.45296 -1.28328 -1.05222
2.45296 -1.28953 -1.05332
2.44364 -1.29088 -1.05043
2.44363 -1.29713 -1.05154
2.44363 -1.30340 -1.05266
1.80966 -0.96990 -0.78039
1.79866 -0.96864 -0.77648
1.79323 -0.97035 -0.77497
1.78246 -0.96914 -0.77116
1.77713 -0.97085 -0.76969
1.71886 0.93902 -0.75007
1.71885 0.93456 -0.74925
1.71885 0.93010 -0.74844
1.71885 0.92566 -0.74763
1.71889 0.92125 -0.74684
1.71889 0.91684 -0.74605
1.71889 0.91243 -0.74525
1.71890 0.90803 -0.74447
1.71892 0.90364 -0.74369
1.71892 0.89926 -0.74291
1.71891 0.89488 -0.74214
1.72892 0.89570 -0.74568
1.73439 0.89414 -0.74727
1.74544 0.89542 -0.75125
1.75662 0.89673 -0.75529
1.76227 0.89517 -0.75695
1.77369 0.89652 -0.76108
1.77944 0.89496 -0.76278
1.79106 0.89632 -0.76699
1.79696 0.89478 -0.76875
1.80881 0.89617 -0.77306
1.81480 0.89463 -0.77485
2.47142 1.21217 -1.05416
2.47145 1.20606 -1.05314
2.47145 1.19995 -1.05212
2.48095 1.19844 -1.05514
2.48095 1.19232 -1.05412
2.48099 1.18624 -1.05313
2.48100 1.18015 -1.05213
2.49059 1.17861 -1.05519
2.49059 1.17252 -1.05420
2.49062 1.16645 -1.05322
2.49061 1.16038 -1.05224
2.50027 1.15880 -1.05533
2.50026 1.15273 -1.05436
2.50031 1.14669 -1.05341
2.50031 1.14065 -1.05245
2.50032 1.13462 -1.05149
2.51005 1.13298 -1.05463
2.51008 1.12696 -1.05369
2.51007 1.12093 -1.05275
2.51007 1.11491 -1.05181
2.51987 1.11324 -1.05498
2.51992 1.10724 -1.05407
2.51992 1.10123 -1.05315
2.51993 1.09524 -1.05223
2.52982 1.09353 -1.05545
2.52984 1.08754 -1.05455
2.52984 1.08155 -1.05364
2.52983 1.07557 -1.05274
2.52983 1.06959 -1.05185
2.53983 1.06784 -1.05512
2.53984 1.06187 -1.05424
2.53984 1.05591 -1.05336
2.53985 1.04996 -1.05249
2.53987 1.04402 -1.05163
2.54990 1.04219 -1.05492
2.54990 1.03625 -1.05406
2.54994 1.03032 -1.05322
2.54994 1.02440 -1.05237
2.54995 1.01848 -1.05153
2.56007 1.01659 -1.05487
2.56007 1.01067 -1.05403
2.56009 1.00476 -1.05321
2.56009 0.99886 -1.05239
2.56009 0.99296 -1.05157
2.57032 0.99102 -1.05495
2.57033 0.98513 -1.05415
2.57033 0.97924 -1.05334
2.57034 0.97336 -1.05254
2.57036 0.96749 -1.05176
2.58063 0.96547 -1.05517
2.58063 0.95959 -1.05438
2.58063 0.95372 -1.05360
2.58067 0.94787 -1.05284
2.58067 0.94202 -1.05207
2.59104 0.93993 -1.05553
2.59104 0.93408 -1.05477
2.59106 0.92823 -1.05402
2.59106 0.92239 -1.05326
2.59106 0.91655 -1.05252
2.59105 0.91072 -1.05177
2.60154 0.90857 -1.05529
2.60154 0.90274 -1.05455
2.60154 0.89691 -1.05383
2.60155 0.89109 -1.05310
2.60156 0.88529 -1.05239
2.60156 0.87949 -1.05168
2.61209 0.87723 -1.05522
2.61209 0.87142 -1.05452
2.61212 0.86563 -1.05383
2.61213 0.85984 -1.05313
2.61213 0.85405 -1.05245
2.61214 0.84827 -1.05176
2.62277 0.84593 -1.05536
2.62276 0.84014 -1.05468
2.62276 0.83436 -1.05401
2.62276 0.82859 -1.05334
2.62280 0.82284 -1.05269
2.62280 0.81708 -1.05203
2.63351 0.81464 -1.05567
2.63351 0.80887 -1.05502
2.63352 0.80312 -1.05438
2.63352 0.79736 -1.05374
2.63352 0.79161 -1.05310
2.63355 0.78588 -1.05248
2.63355 0.78015 -1.05186
2.64434 0.77760 -1.05555
2.64435 0.77186 -1.05493
2.64435 0.76612 -1.05432
2.64436 0.76040 -1.05371
2.64436 0.75467 -1.05311
2.64436 0.74896 -1.05251
2.64439 0.74326 -1.05193
2.65527 0.74059 -1.05567
2.65527 0.73487 -1.05508
2.65527 0.72915 -1.05450
2.65529 0.72345 -1.05393
2.65529 0.71775 -1.05336
2.65528 0.71205 -1.05279
2.65528 0.70636 -1.05222
2.65531 0.70069 -1.05168
2.66628 0.69788 -1.05547
2.66629 0.69219 -1.05492
2.66629 0.68650 -1.05438
2.66630 0.68082 -1.05384
2.66630 0.67514 -1.05330
2.66630 0.66947 -1.05277
2.66629 0.66380 -1.05224
2.66632 0.65815 -1.05173
2.67739 0.65520 -1.05558
2.67739 0.64953 -1.05507
2.67739 0.64386 -1.05456
2.67740 0.63820 -1.05406
2.67740 0.63255 -1.05356
2.67740 0.62689 -1.05306
2.67739 0.62125 -1.05257
2.67742 0.61561 -1.05209
2.67743 0.60998 -1.05161
2.68858 0.60687 -1.05551
2.68858 0.60122 -1.05504
2.68859 0.59558 -1.05457
2.68859 0.58994 -1.05411
2.68859 0.58430 -1.05365
2.68858 0.57868 -1.05319
2.68861 0.57306 -1.05275
2.68862 0.56744 -1.05231
2.68862 0.56183 -1.05187
2.69986 0.55854 -1.05583
2.69987 0.55291 -1.05539
2.69987 0.54729 -1.05496
2.69987 0.54167 -1.05454
2.69989 0.53606 -1.05413
2.69989 0.53045 -1.05371
2.69990 0.52485 -1.05330
2.69990 0.51924 -1.05289
2.69990 0.51365 -1.05249
2.69990 0.50805 -1.05209
2.69990 0.50247 -1.05170
2.71124 0.49897 -1.05572
2.71126 0.49337 -1.05535
2.71126 0.48777 -1.05497
2.71127 0.48217 -1.05459
2.71127 0.47658 -1.05422
2.71127 0.47099 -1.05385
2.71127 0.46541 -1.05349
2.71127 0.45983 -1.05313
2.71127 0.45425 -1.05277
2.71129 0.44868 -1.05243
2.71129 0.44311 -1.05208
2.71130 0.43755 -1.05174
2.72273 0.43381 -1.05584
2.72273 0.42823 -1.05551
2.72273 0.42265 -1.05518
2.72273 0.41707 -1.05485
2.72273 0.41150 -1.05453
2.72275 0.40594 -1.05422
2.72275 0.40037 -1.05391
2.72276 0.39481 -1.05360
2.72276 0.38925 -1.05330
2.72276 0.38370 -1.05300
2.72276 0.37814 -1.05271
2.72275 0.37259 -1.05242
2.72275 0.36705 -1.05213
2.72278 0.36151 -1.05186
2.72278 0.35597 -1.05158
2.73431 0.35192 -1.05576
2.73431 0.34636 -1.05549
2.73431 0.34080 -1.05523
2.73431 0.33525 -1.05497
2.73431 0.32970 -1.05471
2.73430 0.32415 -1.05445
2.73433 0.31861 -1.05422
2.73433 0.31307 -1.05397
2.73433 0.30753 -1.05373
2.73433 0.30200 -1.05350
2.73433 0.29646 -1.05327
2.73433 0.29093 -1.05304
2.73433 0.28540 -1.05282
2.73435 0.27987 -1.05261
2.73435 0.27435 -1.05240
2.73435 0.26883 -1.05219
2.73435 0.26331 -1.05198
2.73435 0.25779 -1.05178
2.74598 0.25335 -1.05606
2.74597 0.24781 -1.05586
2.74597 0.24227 -1.05567
2.74599 0.23674 -1.05550
2.74599 0.23121 -1.05532
2.74599 0.22568 -1.05514
2.74599 0.22015 -1.05497
2.74599 0.21462 -1.05480
2.74599 0.20910 -1.05464
2.74599 0.20357 -1.05448
2.74598 0.19805 -1.05433
2.74601 0.19253 -1.05418
2.74601 0.18702 -1.05404
2.74601 0.18150 -1.05390
2.74600 0.17598 -1.05376
2.74600 0.17047 -1.05363
2.74600 0.16496 -1.05350
2.74600 0.15945 -1.05337
2.74600 0.15394 -1.05325
2.74602 0.14843 -1.05314
2.74602 0.14292 -1.05303
2.74602 0.13742 -1.05292
2.74601 0.13191 -1.05282
2.74601 0.12641 -1.05272
2.74601 0.12090 -1.05262
2.74601 0.11540 -1.05253
2.74600 0.10990 -1.05244
2.74602 0.10440 -1.05237
2.74602 0.09890 -1.05229
2.74602 0.09340 -1.05222
2.74602 0.08790 -1.05215
2.74602 0.08241 -1.05208
2.74602 0.07691 -1.05202
2.74601 0.07141 -1.05196
2.74601 0.06592 -1.05191
2.74604 0.06042 -1.05187
2.74604 0.05493 -1.05183
2.74604 0.04943 -1.05179
2.74604 0.04394 -1.05175
2.74603 0.03845 -1.05172
2.74603 0.03295 -1.05169
2.74602 0.02746 -1.05166
2.74602 0.02197 -1.05164
2.74603 0.01648 -1.05163
2.74603 0.01098 -1.05162
2.74603 0.00549 -1.05161
2.74603 0.00000 -1.05161
2.74603 -0.00549 -1.05161
2.74603 -0.01098 -1.05162
2.74603 -0.01648 -1.05163
2.74602 -0.02197 -1.05164
2.74602 -0.02746 -1.05166
2.74603 -0.03295 -1.05169
2.74603 -0.03845 -1.05172
2.74604 -0.04394 -1.05175
2.74604 -0.04943 -1.05179
2.74604 -0.05493 -1.05183
2.74604 -0.06042 -1.05187
2.74601 -0.06592 -1.05191
2.74601 -0.07141 -1.05196
2.74602 -0.07691 -1.05202
2.74602 -0.08241 -1.05208
2.74602 -0.08790 -1.05215
2.74602 -0.09340 -1.05222
2.74602 -0.09890 -1.05229
2.74602 -0.10440 -1.05237
2.74600 -0.10990 -1.05244
2.74601 -0.11540 -1.05253
2.74601 -0.12090 -1.05262
2.74601 -0.12641 -1.05272
2.74601 -0.13191 -1.05282
2.74602 -0.13742 -1.05292
2.74602 -0.14292 -1.05303
2.74602 -0.14843 -1.05314
2.74599 -0.15394 -1.05325
2.74600 -0.15945 -1.05337
2.74600 -0.16496 -1.05350
2.74600 -0.17047 -1.05363
2.74600 -0.17598 -1.05376
2.74601 -0.18150 -1.05390
2.74601 -0.18702 -1.05404
2.74600 -0.19253 -1.05418
2.74598 -0.19805 -1.05433
2.74599 -0.20357 -1.05448
2.74599 -0.20910 -1.05464
2.74599 -0.21462 -1.05480
2.74599 -0.22015 -1.05497
2.74599 -0.22568 -1.05514
2.74599 -0.23121 -1.05532
2.74599 -0.23674 -1.05550
2.74597 -0.24227 -1.05567
2.74597 -0.24781 -1.05586
2.74598 -0.25334 -1.05606
2.73435 -0.25779 -1.05178
2.73435 -0.26331 -1.05198
2.73435 -0.26883 -1.05219
2.73435 -0.27435 -1.05240
2.73435 -0.27987 -1.05261
2.73433 -0.28540 -1.05282
2.73433 -0.29093 -1.05304
2.73433 -0.29646 -1.05327
2.73433 -0.30200 -1.05350
2.73433 -0.30753 -1.05373
2.73433 -0.31307 -1.05397
2.73433 -0.31861 -1.05422
2.73430 -0.32415 -1.05445
2.73431 -0.32970 -1.05471
2.73431 -0.33525 -1.05496
2.73431 -0.34080 -1.05523
2.73431 -0.34636 -1.05549
2.73431 -0.35192 -1.05576
2.72278 -0.35597 -1.05158
2.72278 -0.36151 -1.05186
2.72275 -0.36705 -1.05213
2.72275 -0.37259 -1.05242
2.72276 -0.37814 -1.05271
2.72276 -0.38370 -1.05300
2.72276 -0.38925 -1.05330
2.72275 -0.39481 -1.05360
2.72275 -0.40037 -1.05391
2.72275 -0.40594 -1.05422
2.72273 -0.41150 -1.05453
2.72273 -0.41707 -1.05485
2.72273 -0.42265 -1.05518
2.72273 -0.42823 -1.05551
2.72273 -0.43381 -1.05584
2.71129 -0.43755 -1.05174
2.71129 -0.44311 -1.05208
2.71129 -0.44868 -1.05243
2.71127 -0.45425 -1.05277
2.71127 -0.45983 -1.05313
2.71127 -0.46541 -1.05349
2.71127 -0.47099 -1.05385
2.71127 -0.47658 -1.05422
