3.66223 -0.20131 -1.11147
3.66261 -0.20841 -1.11170
3.66280 -0.21550 -1.11188
3.66320 -0.22261 -1.11213
3.66364 -0.22972 -1.11240
3.66387 -0.23682 -1.11261
3.66461 -0.24396 -1.11297
3.66449 -0.25105 -1.11308
3.66560 -0.25822 -1.11356
3.66628 -0.26537 -1.11392
3.66775 -0.27258 -1.11453
3.66923 -0.27980 -1.11514
3.66997 -0.28697 -1.11553
3.67144 -0.29420 -1.11615
3.67218 -0.30138 -1.11655
3.67366 -0.30863 -1.11718
3.67514 -0.31589 -1.11781
3.67586 -0.32309 -1.11821
3.67734 -0.33036 -1.11886
3.67809 -0.33757 -1.11928
3.67957 -0.34486 -1.11993
3.68031 -0.35208 -1.12036
3.68179 -0.35938 -1.12102
3.69122 -0.36748 -1.12411
3.69121 -0.37467 -1.12432
3.69118 -0.38185 -1.12453
3.67959 -0.38782 -1.12123
3.67956 -0.39499 -1.12145
3.67954 -0.40216 -1.12167
3.67952 -0.40933 -1.12191
3.67949 -0.41651 -1.12214
3.67947 -0.42369 -1.12238
3.67944 -0.43087 -1.12263
3.67941 -0.43805 -1.12287
3.67977 -0.44529 -1.12324
3.68047 -0.45257 -1.12372
3.68090 -0.45982 -1.12412
3.68189 -0.46715 -1.12469
3.68245 -0.47444 -1.12514
3.68383 -0.48183 -1.12584
3.68241 -0.48886 -1.12570
3.68307 -0.49617 -1.12619
3.68445 -0.50359 -1.12691
3.68515 -0.51092 -1.12742
3.68652 -0.51835 -1.12814
3.68788 -0.52579 -1.12887
3.68857 -0.53314 -1.12939
3.68993 -0.54060 -1.13012
3.69062 -0.54797 -1.13065
3.69218 -0.55547 -1.13146
3.69378 -0.56299 -1.13228
3.69458 -0.57040 -1.13286
3.69332 -0.57750 -1.13281
3.69412 -0.58491 -1.13340
3.69572 -0.59247 -1.13424
3.69732 -0.60003 -1.13508
3.69809 -0.60748 -1.13568
3.69963 -0.61505 -1.13651
3.70118 -0.62264 -1.13735
3.70202 -0.63012 -1.13798
3.70370 -0.63775 -1.13888
3.70454 -0.64525 -1.13951
3.70320 -0.65237 -1.13949
3.70488 -0.66003 -1.14039
3.70572 -0.66754 -1.14104
3.70740 -0.67522 -1.14196
3.70822 -0.68276 -1.14262
3.70991 -0.69046 -1.14354
3.71166 -0.69819 -1.14450
3.71258 -0.70577 -1.14520
3.71443 -0.71354 -1.14619
3.71329 -0.72074 -1.14626
3.71421 -0.72835 -1.14698
3.71606 -0.73615 -1.14799
3.71699 -0.74378 -1.14871
3.71890 -0.75162 -1.14975
3.72121 -0.75955 -1.15091
3.72242 -0.76727 -1.15174
3.72505 -0.77530 -1.15302
3.72631 -0.78306 -1.15387
3.72786 -0.79089 -1.15482
3.73159 -0.79919 -1.15645
3.73604 -0.80768 -1.15831
3.73829 -0.81571 -1.15950
3.74280 -0.82425 -1.16138
3.74731 -0.83282 -1.16328
3.74900 -0.84078 -1.16431
3.75365 -0.84942 -1.16625
3.75649 -0.85767 -1.16765
3.76207 -0.86658 -1.16990
3.76752 -0.87548 -1.17212
3.77027 -0.88378 -1.17350
3.77761 -0.89318 -1.17632
3.78540 -0.90273 -1.17928
3.78870 -0.91124 -1.18086
3.80204 -0.92220 -1.18557
3.82035 -0.93444 -1.19183
3.83504 -0.94586 -1.19698
4.01128 -0.99753 -1.25259
4.20853 -1.05520 -1.31481
4.23865 -1.07144 -1.32487
4.19454 1.06029 -1.34464
4.16302 1.04379 -1.33389
3.92906 0.97709 -1.25832
3.82856 0.94427 -1.22555
3.81540 0.93323 -1.22076
3.79789 0.92119 -1.21459
3.78590 0.91056 -1.21019
3.78198 0.90191 -1.20838
3.77350 0.89221 -1.20512
3.76616 0.88282 -1.20223
3.76331 0.87450 -1.20078
3.75764 0.86556 -1.19844
3.75195 0.85664 -1.19609
3.74912 0.84839 -1.19467
3.74517 0.83992 -1.19289
3.74292 0.83184 -1.19166
3.73842 0.82329 -1.18972
3.73392 0.81476 -1.18779
3.73168 0.80674 -1.18658
3.72761 0.79834 -1.18479
3.72384 0.79003 -1.18311
3.72241 0.78224 -1.18217
3.71867 0.77397 -1.18051
3.71522 0.76579 -1.17894
3.71348 0.75798 -1.17793
3.71002 0.74983 -1.17637
3.70657 0.74170 -1.17482
3.70487 0.73394 -1.17383
3.70143 0.72585 -1.17229
3.70022 0.71821 -1.17147
3.69715 0.71022 -1.17006
3.69433 0.70230 -1.16874
3.69298 0.69468 -1.16789
3.69028 0.68681 -1.16661
3.68757 0.67896 -1.16534
3.68625 0.67137 -1.16451
3.68356 0.66355 -1.16326
3.68229 0.65600 -1.16246
3.68160 0.64856 -1.16184
3.67962 0.64091 -1.16082
3.67864 0.63343 -1.16013
3.67667 0.62580 -1.15913
3.67591 0.61839 -1.15851
3.67441 0.61086 -1.15766
3.67290 0.60334 -1.15682
3.67214 0.59595 -1.15621
3.67063 0.58845 -1.15538
3.67196 0.58140 -1.15544
3.67120 0.57404 -1.15486
3.66966 0.56655 -1.15402
3.66887 0.55920 -1.15343
3.66729 0.55173 -1.15260
3.66595 0.54431 -1.15185
3.66528 0.53699 -1.15131
3.66393 0.52958 -1.15056
3.66326 0.52228 -1.15003
3.66191 0.51489 -1.14930
3.66056 0.50751 -1.14857
3.66267 0.50061 -1.14892
3.66132 0.49324 -1.14820
3.66067 0.48598 -1.14770
3.65933 0.47863 -1.14699
3.65798 0.47128 -1.14628
3.65731 0.46403 -1.14579
3.65597 0.45671 -1.14509
3.65530 0.44947 -1.14460
3.65395 0.44216 -1.14391
3.65267 0.43487 -1.14325
3.65208 0.42766 -1.14280
3.65084 0.42039 -1.14216
3.65023 0.41319 -1.14172
3.65179 0.40625 -1.14196
3.65131 0.39907 -1.14157
3.65035 0.39185 -1.14103
3.64938 0.38463 -1.14049
3.64889 0.37748 -1.14011
3.64795 0.37028 -1.13959
3.64747 0.36313 -1.13922
3.64650 0.35594 -1.13870
3.64554 0.34875 -1.13819
3.64506 0.34162 -1.13783
3.64416 0.33446 -1.13735
3.64373 0.32734 -1.13701
3.64288 0.32019 -1.13655
3.64247 0.31308 -1.13623
3.64162 0.30594 -1.13578
3.64077 0.29880 -1.13534
3.64034 0.29171 -1.13503
3.64195 0.28478 -1.13536
3.64153 0.27769 -1.13505
3.64072 0.27057 -1.13464
3.63993 0.26346 -1.13423
3.63956 0.25638 -1.13396
3.63877 0.24928 -1.13356
3.63838 0.24221 -1.13329
3.63759 0.23512 -1.13290
3.63720 0.22806 -1.13264
3.63641 0.22098 -1.13226
3.63562 0.21390 -1.13189
3.63522 0.20685 -1.13164
3.63469 0.19979 -1.13135
3.63446 0.19276 -1.13116
3.63401 0.18571 -1.13090
3.63378 0.17868 -1.13072
3.63332 0.17164 -1.13048
3.63287 0.16461 -1.13023
3.63264 0.15758 -1.13007
3.63218 0.15055 -1.12983
3.63197 0.14353 -1.12968
3.63152 0.13651 -1.12945
3.63129 0.12949 -1.12930
3.63084 0.12247 -1.12909
3.63038 0.11546 -1.12887
3.63016 0.10845 -1.12874
3.62970 0.10143 -1.12853
3.62947 0.09443 -1.12840
3.62913 0.08742 -1.12824
3.62911 0.08043 -1.12819
3.62902 0.07343 -1.12811
3.62893 0.06643 -1.12804
3.62889 0.05944 -1.12799
3.62881 0.05244 -1.12793
3.62877 0.04545 -1.12789
3.62868 0.03846 -1.12784
3.62864 0.03146 -1.12780
3.62856 0.02447 -1.12776
3.62848 0.01748 -1.12773
3.62844 0.01049 -1.12771
3.62836 0.00350 -1.12768
3.62836 -0.00350 -1.12768
3.62844 -0.01049 -1.12771
3.62848 -0.01748 -1.12773
3.62856 -0.02447 -1.12776
3.62864 -0.03146 -1.12780
3.62868 -0.03846 -1.12784
3.62877 -0.04545 -1.12789
3.62881 -0.05244 -1.12793
3.62889 -0.05944 -1.12799
3.62893 -0.06643 -1.12804
3.62902 -0.07343 -1.12811
3.62911 -0.08043 -1.12819
3.62913 -0.08742 -1.12824
3.62948 -0.09443 -1.12840
3.62970 -0.10143 -1.12853
3.63016 -0.10845 -1.12874
3.63038 -0.11546 -1.12887
3.63084 -0.12247 -1.12909
3.63129 -0.12949 -1.12930
3.63152 -0.13651 -1.12945
3.63197 -0.14353 -1.12968
3.63218 -0.15055 -1.12983
3.63264 -0.15758 -1.13007
3.63287 -0.16461 -1.13023
3.63332 -0.17164 -1.13048
3.63378 -0.17868 -1.13072
3.63401 -0.18571 -1.13090
3.63446 -0.19276 -1.13116
3.63469 -0.19979 -1.13135
3.63523 -0.20685 -1.13164
3.63562 -0.21390 -1.13189
3.63641 -0.22098 -1.13226
3.63720 -0.22806 -1.13264
3.63759 -0.23512 -1.13290
3.63838 -0.24221 -1.13329
3.63877 -0.24928 -1.13356
3.63956 -0.25638 -1.13396
3.63993 -0.26346 -1.13423
3.64072 -0.27057 -1.13464
3.64153 -0.27769 -1.13505
3.64195 -0.28478 -1.13536
3.64034 -0.29171 -1.13503
3.64077 -0.29880 -1.13534
3.64162 -0.30594 -1.13578
3.64247 -0.31308 -1.13624
3.64288 -0.32019 -1.13655
3.64374 -0.32734 -1.13701
3.64416 -0.33446 -1.13735
3.64506 -0.34162 -1.13783
3.64554 -0.34875 -1.13819
3.64651 -0.35594 -1.13870
3.64747 -0.36313 -1.13922
3.64795 -0.37028 -1.13959
3.64889 -0.37748 -1.14011
3.64938 -0.38463 -1.14049
3.65035 -0.39185 -1.14103
3.65131 -0.39907 -1.14157
3.65179 -0.40625 -1.14196
3.65023 -0.41319 -1.14172
3.65084 -0.42039 -1.14216
3.65208 -0.42766 -1.14280
3.65267 -0.43487 -1.14325
3.65395 -0.44216 -1.14391
3.65530 -0.44947 -1.14460
3.65597 -0.45671 -1.14509
3.65731 -0.46403 -1.14579
3.65798 -0.47128 -1.14628
3.65933 -0.47863 -1.14699
3.66067 -0.48598 -1.14770
3.66132 -0.49324 -1.14820
3.66267 -0.50061 -1.14892
3.66056 -0.50751 -1.14857
3.66191 -0.51489 -1.14930
3.66326 -0.52228 -1.15003
3.66393 -0.52958 -1.15056
3.66528 -0.53699 -1.15131
3.66595 -0.54431 -1.15185
3.66730 -0.55173 -1.15260
3.66887 -0.55920 -1.15344
3.66966 -0.56655 -1.15402
3.67120 -0.57404 -1.15486
3.67196 -0.58140 -1.15544
3.67063 -0.58845 -1.15538
3.67214 -0.59595 -1.15621
3.67290 -0.60334 -1.15682
3.67441 -0.61086 -1.15766
3.67591 -0.61839 -1.15851
3.67667 -0.62580 -1.15913
3.67864 -0.63343 -1.16013
3.67962 -0.64091 -1.16082
3.68160 -0.64856 -1.16184
3.68229 -0.65600 -1.16246
3.68356 -0.66355 -1.16326
3.68625 -0.67137 -1.16451
3.68758 -0.67896 -1.16534
3.69028 -0.68681 -1.16661
3.69299 -0.69468 -1.16789
3.69434 -0.70230 -1.16874
3.69716 -0.71022 -1.17007
3.70022 -0.71821 -1.17147
3.70143 -0.72585 -1.17230
3.70487 -0.73394 -1.17383
3.70657 -0.74170 -1.17482
3.71002 -0.74983 -1.17637
3.71348 -0.75798 -1.17793
3.71521 -0.76579 -1.17894
3.71867 -0.77397 -1.18051
3.72241 -0.78224 -1.18217
3.72384 -0.79003 -1.18311
3.72760 -0.79834 -1.18479
3.73168 -0.80674 -1.18658
3.73392 -0.81476 -1.18779
3.73842 -0.82329 -1.18972
3.74293 -0.83184 -1.19166
3.74517 -0.83992 -1.19289
3.74913 -0.84840 -1.19467
3.75195 -0.85664 -1.19610
3.75764 -0.86556 -1.19844
3.76331 -0.87450 -1.20078
3.76616 -0.88282 -1.20223
3.77350 -0.89221 -1.20512
3.78199 -0.90192 -1.20838
3.78591 -0.91056 -1.21019
3.79791 -0.92120 -1.21460
3.81547 -0.93324 -1.22078
3.82861 -0.94428 -1.22557
3.92938 -0.97717 -1.25843
4.16311 -1.04381 -1.33392
4.19461 -1.06031 -1.34467
4.16211 1.05209 -1.36770
4.11834 1.03259 -1.35266
3.89882 0.96957 -1.27994
3.82199 0.94264 -1.25412
3.80865 0.93157 -1.24916
3.79378 0.92019 -1.24369
3.78235 0.90971 -1.23937
3.77811 0.90099 -1.23741
3.76988 0.89135 -1.23415
3.76260 0.88198 -1.23121
3.75964 0.87365 -1.22969
3.75377 0.86467 -1.22722
3.74810 0.85576 -1.22482
3.74531 0.84753 -1.22338
3.74062 0.83890 -1.22132
3.73829 0.83081 -1.22003
3.73362 0.82223 -1.21798
3.72894 0.81367 -1.21594
3.72692 0.80571 -1.21478
3.72330 0.79742 -1.21310
3.71955 0.78912 -1.21137
3.71767 0.78124 -1.21027
3.71392 0.77299 -1.20856
3.71019 0.76475 -1.20687
3.70833 0.75692 -1.20579
3.70488 0.74879 -1.20419
3.70173 0.74073 -1.20270
3.70060 0.73309 -1.20187
3.69754 0.72508 -1.20042
3.69601 0.71739 -1.19948
3.69296 0.70942 -1.19804
3.68991 0.70146 -1.19661
3.68840 0.69381 -1.19569
3.68556 0.68593 -1.19433
3.68286 0.67809 -1.19303
3.68199 0.67060 -1.19233
3.67930 0.66278 -1.19104
3.67796 0.65523 -1.19020
3.67544 0.64748 -1.18898
3.67296 0.63975 -1.18778
3.67173 0.63224 -1.18698
3.66930 0.62455 -1.18580
3.66819 0.61709 -1.18506
3.66599 0.60946 -1.18397
3.66424 0.60191 -1.18302
3.66313 0.59449 -1.18229
3.66092 0.58689 -1.18121
3.65870 0.57931 -1.18014
3.65760 0.57191 -1.17942
3.65539 0.56435 -1.17836
3.65433 0.55698 -1.17767
3.65231 0.54947 -1.17667
3.65050 0.54201 -1.17575
3.64958 0.53469 -1.17512
3.64826 0.52732 -1.17437
3.64743 0.52002 -1.17378
3.64577 0.51262 -1.17292
3.64436 0.50527 -1.17215
3.64368 0.49802 -1.17162
3.64233 0.49069 -1.17088
3.64168 0.48346 -1.17037
3.64033 0.47614 -1.16964
3.63898 0.46883 -1.16891
3.63831 0.46162 -1.16841
3.63696 0.45433 -1.16769
3.63629 0.44714 -1.16720
3.63743 0.44016 -1.16729
3.63620 0.43291 -1.16663
3.63561 0.42573 -1.16617
3.63438 0.41849 -1.16552
3.63377 0.41133 -1.16507
3.63255 0.40410 -1.16442
3.63194 0.39695 -1.16398
3.63098 0.38977 -1.16343
3.63004 0.38260 -1.16289
3.62961 0.37548 -1.16252
3.62879 0.36833 -1.16203
3.62837 0.36123 -1.16167
3.62752 0.35409 -1.16117
3.62668 0.34695 -1.16069
3.62870 0.34009 -1.16112
3.62785 0.33296 -1.16064
3.62743 0.32587 -1.16031
3.62658 0.31875 -1.15984
3.62618 0.31168 -1.15951
3.62533 0.30457 -1.15905
3.62449 0.29747 -1.15860
3.62407 0.29040 -1.15828
3.62322 0.28331 -1.15784
3.62280 0.27626 -1.15753
3.62195 0.26917 -1.15709
3.62111 0.26210 -1.15666
3.62071 0.25506 -1.15637
3.61986 0.24799 -1.15595
3.61945 0.24095 -1.15566
3.61867 0.23390 -1.15527
3.61828 0.22687 -1.15500
3.61750 0.21983 -1.15462
3.61691 0.21280 -1.15429
3.61668 0.20579 -1.15409
3.61625 0.19878 -1.15383
3.61603 0.19178 -1.15364
3.61798 0.18489 -1.15414
3.61775 0.17789 -1.15396
3.61730 0.17089 -1.15371
3.61685 0.16388 -1.15346
3.61663 0.15689 -1.15329
3.61618 0.14989 -1.15306
3.61597 0.14290 -1.15290
3.61552 0.13591 -1.15267
3.61530 0.12892 -1.15252
3.61485 0.12193 -1.15230
3.61440 0.11495 -1.15208
3.61418 0.10797 -1.15194
3.61373 0.10099 -1.15174
3.61350 0.09401 -1.15161
3.61310 0.08704 -1.15142
3.61309 0.08007 -1.15137
3.61299 0.07311 -1.15129
3.61289 0.06614 -1.15121
3.61285 0.05918 -1.15116
3.61275 0.05221 -1.15110
3.61270 0.04525 -1.15105
3.61261 0.03829 -1.15099
3.61256 0.03132 -1.15096
3.61248 0.02436 -1.15092
3.61241 0.01740 -1.15088
3.61237 0.01044 -1.15086
3.61229 0.00348 -1.15083
3.61229 -0.00348 -1.15083
3.61237 -0.01044 -1.15086
3.61241 -0.01740 -1.15088
3.61248 -0.02436 -1.15092
3.61256 -0.03132 -1.15096
3.61261 -0.03829 -1.15099
3.61270 -0.04525 -1.15105
3.61275 -0.05221 -1.15110
3.61285 -0.05918 -1.15116
3.61290 -0.06614 -1.15121
3.61299 -0.07311 -1.15129
3.61309 -0.08007 -1.15137
3.61310 -0.08704 -1.15142
3.61351 -0.09401 -1.15161
3.61373 -0.10099 -1.15174
3.61418 -0.10797 -1.15194
3.61441 -0.11495 -1.15209
3.61485 -0.12193 -1.15230
3.61530 -0.12892 -1.15252
3.61552 -0.13591 -1.15267
3.61597 -0.14290 -1.15290
3.61618 -0.14989 -1.15306
3.61663 -0.15689 -1.15329
3.61685 -0.16388 -1.15346
3.61730 -0.17089 -1.15371
3.61775 -0.17789 -1.15396
3.61798 -0.18489 -1.15414
3.61603 -0.19178 -1.15364
3.61625 -0.19878 -1.15383
3.61668 -0.20579 -1.15409
3.61691 -0.21280 -1.15429
3.61750 -0.21983 -1.15462
3.61828 -0.22688 -1.15500
3.61867 -0.23390 -1.15527
3.61945 -0.24095 -1.15566
3.61987 -0.24799 -1.15595
3.62071 -0.25506 -1.15637
3.62111 -0.26210 -1.15666
3.62196 -0.26917 -1.15709
3.62280 -0.27626 -1.15753
3.62323 -0.28331 -1.15784
3.62407 -0.29041 -1.15828
3.62449 -0.29747 -1.15860
3.62534 -0.30457 -1.15905
3.62618 -0.31168 -1.15951
3.62658 -0.31875 -1.15984
3.62743 -0.32587 -1.16031
3.62786 -0.33296 -1.16065
3.62871 -0.34009 -1.16113
3.62668 -0.34695 -1.16069
3.62753 -0.35409 -1.16118
3.62837 -0.36123 -1.16167
3.62880 -0.36833 -1.16203
3.62962 -0.37548 -1.16252
3.63005 -0.38260 -1.16289
3.63099 -0.38977 -1.16343
3.63195 -0.39695 -1.16398
3.63255 -0.40411 -1.16442
3.63378 -0.41133 -1.16507
3.63439 -0.41849 -1.16552
3.63561 -0.42573 -1.16617
3.63620 -0.43291 -1.16663
3.63743 -0.44016 -1.16729
3.63629 -0.44714 -1.16720
3.63697 -0.45433 -1.16770
3.63831 -0.46162 -1.16841
3.63898 -0.46884 -1.16892
3.64033 -0.47614 -1.16964
3.64168 -0.48346 -1.17037
3.64233 -0.49069 -1.17088
3.64368 -0.49802 -1.17162
3.64436 -0.50527 -1.17215
3.64577 -0.51262 -1.17292
3.64743 -0.52003 -1.17378
3.64826 -0.52732 -1.17437
3.64958 -0.53469 -1.17512
3.65050 -0.54201 -1.17575
3.65231 -0.54947 -1.17667
3.65433 -0.55698 -1.17767
3.65540 -0.56435 -1.17836
3.65760 -0.57191 -1.17942
3.65871 -0.57931 -1.18014
3.66092 -0.58689 -1.18121
3.66313 -0.59449 -1.18230
3.66424 -0.60191 -1.18302
3.66599 -0.60946 -1.18397
3.66819 -0.61709 -1.18506
3.66930 -0.62455 -1.18580
3.67173 -0.63224 -1.18698
3.67297 -0.63975 -1.18778
3.67545 -0.64748 -1.18898
3.67796 -0.65523 -1.19020
3.67930 -0.66279 -1.19105
3.68199 -0.67060 -1.19233
3.68287 -0.67809 -1.19304
3.68556 -0.68593 -1.19434
3.68840 -0.69382 -1.19569
3.68992 -0.70146 -1.19661
3.69296 -0.70942 -1.19804
3.69601 -0.71739 -1.19948
3.69754 -0.72508 -1.20042
3.70059 -0.73309 -1.20187
3.70173 -0.74073 -1.20270
3.70488 -0.74879 -1.20419
3.70833 -0.75692 -1.20578
3.71018 -0.76475 -1.20687
3.71392 -0.77298 -1.20856
3.71767 -0.78124 -1.21027
3.71954 -0.78912 -1.21137
3.72330 -0.79742 -1.21310
3.72692 -0.80571 -1.21478
3.72894 -0.81367 -1.21594
3.73362 -0.82223 -1.21798
3.73830 -0.83081 -1.22003
3.74063 -0.83890 -1.22132
3.74532 -0.84753 -1.22338
3.74810 -0.85576 -1.22483
3.75378 -0.86467 -1.22722
3.75964 -0.87365 -1.22969
3.76260 -0.88198 -1.23121
3.76988 -0.89135 -1.23415
3.77812 -0.90099 -1.23741
3.78236 -0.90971 -1.23937
3.79380 -0.92020 -1.24370
3.80870 -0.93158 -1.24917
3.82204 -0.94266 -1.25414
3.89900 -0.96961 -1.28000
4.11861 -1.03266 -1.35275
4.16224 -1.05212 -1.36775
4.14830 1.05711 -1.39734
4.07766 1.03074 -1.37287
4.02132 1.00826 -1.35325
3.87695 0.96413 -1.30404
3.82142 0.94251 -1.28475
3.80776 0.93136 -1.27955
3.79296 0.91999 -1.27398
3.78108 0.90940 -1.26940
3.77669 0.90065 -1.26734
3.76867 0.89107 -1.26407
3.76158 0.88174 -1.26112
3.75865 0.87342 -1.25957
3.75290 0.86446 -1.25708
3.74730 0.85558 -1.25465
3.74465 0.84738 -1.25321
3.73996 0.83875 -1.25110
3.73761 0.83066 -1.24978
3.73286 0.82206 -1.24766
3.72819 0.81351 -1.24557
3.72624 0.80556 -1.24440
3.72252 0.79725 -1.24264
3.71864 0.78893 -1.24084
3.71672 0.78104 -1.23969
3.71287 0.77277 -1.23791
3.70904 0.76452 -1.23614
3.70712 0.75668 -1.23501
3.70377 0.74856 -1.23341
3.70070 0.74052 -1.23191
3.69914 0.73280 -1.23092
3.69597 0.72478 -1.22940
3.69439 0.71708 -1.22841
3.69123 0.70908 -1.22690
3.68807 0.70111 -1.22540
3.68650 0.69346 -1.22443
3.68334 0.68552 -1.22294
3.68031 0.67762 -1.22150
3.67905 0.67006 -1.22065
3.67647 0.66227 -1.21937
3.67518 0.65473 -1.21852
3.67261 0.64698 -1.21725
3.67013 0.63925 -1.21602
3.66890 0.63176 -1.21521
3.66643 0.62406 -1.21399
3.66519 0.61658 -1.21318
3.66313 0.60898 -1.21211
3.66070 0.60133 -1.21092
3.65960 0.59391 -1.21017
3.65739 0.58632 -1.20907
3.65529 0.57877 -1.20800
3.65427 0.57139 -1.20730
3.65222 0.56386 -1.20626
3.65120 0.55650 -1.20557
3.64915 0.54900 -1.20454
3.64714 0.54151 -1.20353
3.64654 0.53424 -1.20299
3.64450 0.52677 -1.20198
3.64352 0.51947 -1.20133
3.64169 0.51205 -1.20040
3.63986 0.50464 -1.19947
3.63898 0.49738 -1.19886
3.63740 0.49002 -1.19803
3.63664 0.48279 -1.19747
3.63507 0.47545 -1.19665
3.63350 0.46813 -1.19583
3.63272 0.46091 -1.19528
3.63161 0.45367 -1.19463
3.63082 0.44646 -1.19408
3.62924 0.43917 -1.19328
3.62767 0.43189 -1.19249
3.62691 0.42472 -1.19196
3.62547 0.41747 -1.19123
3.62485 0.41032 -1.19076
3.62360 0.40311 -1.19009
3.62298 0.39597 -1.18963
3.62173 0.38878 -1.18898
3.62048 0.38159 -1.18832
3.61986 0.37447 -1.18788
3.61869 0.36731 -1.18726
3.61809 0.36020 -1.18684
3.61743 0.35310 -1.18639
3.61624 0.34595 -1.18578
3.61564 0.33886 -1.18537
3.61445 0.33173 -1.18477
3.61385 0.32465 -1.18437
3.61266 0.31753 -1.18377
3.61209 0.31047 -1.18339
3.61111 0.30338 -1.18287
3.61023 0.29630 -1.18240
3.60980 0.28926 -1.18207
3.60892 0.28219 -1.18160
3.60849 0.27517 -1.18128
3.60762 0.26811 -1.18083
3.60676 0.26106 -1.18038
3.60635 0.25404 -1.18008
3.60549 0.24700 -1.17964
3.60506 0.24000 -1.17935
3.60420 0.23296 -1.17892
3.60376 0.22596 -1.17863
3.60343 0.21897 -1.17838
3.60257 0.21196 -1.17797
3.60214 0.20497 -1.17769
3.60132 0.19796 -1.17730
3.60106 0.19099 -1.17709
3.60055 0.18400 -1.17680
3.60029 0.17704 -1.17661
3.59977 0.17006 -1.17633
3.59925 0.16308 -1.17605
3.59899 0.15612 -1.17587
3.59847 0.14916 -1.17560
3.59823 0.14220 -1.17543
3.59772 0.13524 -1.17518
3.59746 0.12829 -1.17501
3.59695 0.12133 -1.17476
3.59643 0.11438 -1.17452
3.59617 0.10743 -1.17437
3.59565 0.10048 -1.17413
3.59539 0.09354 -1.17399
3.59489 0.08660 -1.17376
3.59485 0.07967 -1.17370
3.59473 0.07274 -1.17361
3.59462 0.06580 -1.17353
3.59456 0.05888 -1.17347
3.59444 0.05195 -1.17340
3.59438 0.04502 -1.17335
3.59426 0.03809 -1.17328
3.59420 0.03116 -1.17324
3.59408 0.02424 -1.17319
3.59397 0.01731 -1.17314
3.59392 0.01039 -1.17311
3.59385 0.00346 -1.17309
3.59385 -0.00346 -1.17309
3.59392 -0.01039 -1.17311
3.59397 -0.01731 -1.17314
3.59408 -0.02424 -1.17319
3.59420 -0.03116 -1.17324
3.59426 -0.03809 -1.17328
3.59438 -0.04502 -1.17335
3.59444 -0.05195 -1.17340
3.59456 -0.05888 -1.17347
3.59462 -0.06580 -1.17353
3.59473 -0.07274 -1.17361
3.59485 -0.07967 -1.17370
3.59489 -0.08660 -1.17376
3.59539 -0.09354 -1.17399
3.59566 -0.10048 -1.17413
3.59617 -0.10743 -1.17437
3.59643 -0.11438 -1.17452
3.59695 -0.12133 -1.17476
3.59746 -0.12829 -1.17501
3.59772 -0.13524 -1.17518
3.59824 -0.14220 -1.17543
3.59848 -0.14916 -1.17560
3.59899 -0.15612 -1.17587
3.59925 -0.16308 -1.17605
3.59977 -0.17006 -1.17633
3.60029 -0.17704 -1.17661
3.60055 -0.18400 -1.17680
3.60106 -0.19099 -1.17709
3.60132 -0.19796 -1.17730
3.60214 -0.20497 -1.17769
3.60257 -0.21196 -1.17797
3.60344 -0.21897 -1.17838
3.60377 -0.22596 -1.17863
3.60420 -0.23296 -1.17892
3.60506 -0.24000 -1.17935
3.60549 -0.24700 -1.17964
3.60635 -0.25404 -1.18008
3.60676 -0.26106 -1.18038
3.60763 -0.26811 -1.18083
3.60849 -0.27517 -1.18128
3.60892 -0.28219 -1.18160
3.60980 -0.28926 -1.18207
3.61023 -0.29630 -1.18240
3.61111 -0.30338 -1.18287
3.61209 -0.31047 -1.18339
3.61266 -0.31753 -1.18377
3.61385 -0.32465 -1.18437
3.61445 -0.33173 -1.18477
3.61564 -0.33886 -1.18537
3.61624 -0.34595 -1.18578
3.61743 -0.35310 -1.18639
3.61809 -0.36020 -1.18684
3.61869 -0.36731 -1.18726
3.61986 -0.37447 -1.18788
3.62048 -0.38159 -1.18832
3.62173 -0.38878 -1.18898
3.62298 -0.39597 -1.18963
3.62360 -0.40311 -1.19009
3.62485 -0.41032 -1.19076
3.62547 -0.41747 -1.19123
3.62691 -0.42472 -1.19197
3.62767 -0.43189 -1.19249
3.62925 -0.43917 -1.19328
3.63082 -0.44646 -1.19408
3.63161 -0.45367 -1.19463
3.63272 -0.46091 -1.19528
3.63350 -0.46813 -1.19583
3.63507 -0.47545 -1.19665
3.63664 -0.48279 -1.19747
3.63740 -0.49002 -1.19803
3.63898 -0.49738 -1.19886
3.63986 -0.50464 -1.19947
3.64169 -0.51205 -1.20040
3.64352 -0.51947 -1.20133
3.64450 -0.52677 -1.20198
3.64654 -0.53424 -1.20299
3.64714 -0.54151 -1.20353
3.64915 -0.54900 -1.20454
3.65120 -0.55650 -1.20557
3.65222 -0.56386 -1.20626
3.65427 -0.57139 -1.20730
3.65529 -0.57877 -1.20800
3.65739 -0.58632 -1.20907
3.65960 -0.59391 -1.21017
3.66070 -0.60133 -1.21092
3.66313 -0.60898 -1.21211
3.66519 -0.61658 -1.21318
3.66643 -0.62406 -1.21399
3.66890 -0.63176 -1.21521
3.67013 -0.63925 -1.21602
3.67261 -0.64698 -1.21725
3.67519 -0.65473 -1.21852
3.67647 -0.66228 -1.21937
3.67905 -0.67006 -1.22065
3.68031 -0.67762 -1.22150
3.68335 -0.68552 -1.22294
3.68650 -0.69346 -1.22443
3.68807 -0.70111 -1.22540
3.69123 -0.70909 -1.22690
3.69439 -0.71708 -1.22841
3.69597 -0.72478 -1.22940
3.69914 -0.73280 -1.23092
3.70070 -0.74052 -1.23191
3.70377 -0.74856 -1.23341
3.70712 -0.75668 -1.23501
3.70904 -0.76452 -1.23613
3.71287 -0.77277 -1.23791
3.71672 -0.78104 -1.23969
3.71864 -0.78893 -1.24084
3.72252 -0.79725 -1.24264
3.72624 -0.80556 -1.24440
3.72819 -0.81350 -1.24557
3.73286 -0.82206 -1.24766
3.73761 -0.83066 -1.24978
3.73996 -0.83875 -1.25110
3.74465 -0.84738 -1.25321
3.74731 -0.85558 -1.25465
3.75290 -0.86447 -1.25708
3.75864 -0.87342 -1.25957
3.76157 -0.88174 -1.26111
3.76867 -0.89107 -1.26407
3.77670 -0.90065 -1.26734
3.78109 -0.90940 -1.26940
3.79298 -0.92000 -1.27398
3.80779 -0.93136 -1.27956
3.82146 -0.94251 -1.28476
3.87695 -0.96413 -1.30404
4.02149 -1.00830 -1.35331
4.07772 -1.03076 -1.37289
4.14837 -1.05712 -1.39736
4.07770 1.03912 -1.40665
3.99412 1.00962 -1.37714
3.96449 0.99401 -1.36627
3.86982 0.96236 -1.33300
3.82100 0.94240 -1.31555
3.80839 0.93151 -1.31059
3.79332 0.92008 -1.30479
3.78302 0.90987 -1.30065
3.77864 0.90112 -1.29854
3.77006 0.89140 -1.29500
3.76314 0.88211 -1.29203
3.76011 0.87376 -1.29042
3.75412 0.86475 -1.28778
3.74821 0.85578 -1.28519
3.74528 0.84752 -1.28362
3.74043 0.83886 -1.28140
3.73818 0.83079 -1.28008
3.73367 0.82224 -1.27799
3.72916 0.81372 -1.27591
3.72704 0.80573 -1.27465
3.72299 0.79735 -1.27274
3.71905 0.78902 -1.27087
3.71708 0.78112 -1.26968
3.71316 0.77283 -1.26783
3.70936 0.76458 -1.26602
3.70753 0.75676 -1.26490
3.70389 0.74859 -1.26317
3.70057 0.74050 -1.26155
3.69899 0.73277 -1.26052
3.69578 0.72474 -1.25895
3.69417 0.71703 -1.25793
3.69097 0.70903 -1.25637
3.68776 0.70105 -1.25482
3.68617 0.69340 -1.25382
3.68297 0.68545 -1.25228
3.67994 0.67755 -1.25080
3.67847 0.66995 -1.24986
3.67589 0.66217 -1.24855
3.67460 0.65463 -1.24768
3.67203 0.64688 -1.24638
3.66945 0.63913 -1.24509
3.66817 0.63163 -1.24424
3.66560 0.62392 -1.24296
3.66446 0.61646 -1.24216
3.66192 0.60878 -1.24090
3.65937 0.60111 -1.23964
3.65809 0.59367 -1.23882
3.65564 0.58604 -1.23760
3.65342 0.57847 -1.23648
3.65232 0.57108 -1.23573
3.65011 0.56354 -1.23461
3.64901 0.55617 -1.23387
3.64680 0.54864 -1.23277
3.64496 0.54119 -1.23179
3.64394 0.53386 -1.23109
3.64189 0.52640 -1.23006
3.64086 0.51909 -1.22937
3.63899 0.51167 -1.22840
3.63723 0.50428 -1.22748
3.63635 0.49702 -1.22686
3.63465 0.48965 -1.22596
3.63384 0.48242 -1.22537
3.63217 0.47507 -1.22450
3.63050 0.46774 -1.22363
3.62985 0.46055 -1.22311
3.62818 0.45324 -1.22225
3.62735 0.44604 -1.22168
3.62568 0.43874 -1.22083
3.62410 0.43147 -1.22001
3.62334 0.42430 -1.21948
3.62184 0.41705 -1.21870
3.62122 0.40991 -1.21823
3.61997 0.40271 -1.21754
3.61935 0.39558 -1.21708
3.61810 0.38839 -1.21640
3.61686 0.38121 -1.21573
3.61670 0.37415 -1.21544
3.61549 0.36698 -1.21479
3.61487 0.35988 -1.21435
3.61362 0.35273 -1.21370
3.61238 0.34558 -1.21305
3.61176 0.33850 -1.21263
3.61052 0.33137 -1.21199
3.60990 0.32430 -1.21157
3.60866 0.31718 -1.21095
3.60807 0.31012 -1.21055
3.60709 0.30304 -1.21002
3.60621 0.29597 -1.20953
3.60577 0.28894 -1.20920
3.60489 0.28188 -1.20872
3.60445 0.27486 -1.20839
3.60358 0.26781 -1.20792
3.60270 0.26076 -1.20746
3.60229 0.25376 -1.20715
3.60194 0.24676 -1.20687
3.60150 0.23976 -1.20657
3.60063 0.23273 -1.20613
3.60020 0.22574 -1.20583
3.59933 0.21872 -1.20540
3.59845 0.21171 -1.20497
3.59802 0.20473 -1.20469
3.59722 0.19773 -1.20429
3.59696 0.19077 -1.20408
3.59645 0.18379 -1.20379
3.59621 0.17683 -1.20359
3.59574 0.16987 -1.20332
3.59526 0.16290 -1.20305
3.59503 0.15595 -1.20287
3.59455 0.14899 -1.20261
3.59433 0.14205 -1.20245
3.59386 0.13509 -1.20220
3.59362 0.12815 -1.20203
3.59315 0.12120 -1.20180
3.59267 0.11426 -1.20156
3.59244 0.10732 -1.20141
3.59196 0.10038 -1.20118
3.59172 0.09345 -1.20104
3.59124 0.08651 -1.20082
3.59115 0.07959 -1.20074
3.59103 0.07266 -1.20065
3.59092 0.06574 -1.20057
3.59086 0.05882 -1.20051
3.59077 0.05189 -1.20044
3.59076 0.04497 -1.20041
3.59073 0.03805 -1.20037
3.59071 0.03113 -1.20034
3.59069 0.02422 -1.20032
3.59067 0.01730 -1.20030
3.59066 0.01038 -1.20029
3.59064 0.00346 -1.20028
3.59064 -0.00346 -1.20028
3.59066 -0.01038 -1.20029
3.59067 -0.01730 -1.20030
3.59069 -0.02422 -1.20032
3.59071 -0.03113 -1.20034
3.59073 -0.03805 -1.20037
3.59076 -0.04497 -1.20041
3.59077 -0.05189 -1.20044
3.59086 -0.05882 -1.20051
3.59092 -0.06574 -1.20057
3.59103 -0.07266 -1.20065
3.59115 -0.07959 -1.20074
3.59124 -0.08651 -1.20082
3.59172 -0.09345 -1.20104
3.59196 -0.10038 -1.20118
3.59244 -0.10732 -1.20141
3.59267 -0.11426 -1.20156
3.59315 -0.12120 -1.20180
3.59362 -0.12815 -1.20203
3.59386 -0.13509 -1.20220
3.59433 -0.14205 -1.20245
3.59455 -0.14899 -1.20261
3.59503 -0.15595 -1.20287
3.59527 -0.16290 -1.20305
3.59574 -0.16987 -1.20332
3.59622 -0.17684 -1.20359
3.59645 -0.18379 -1.20379
3.59696 -0.19077 -1.20408
3.59722 -0.19773 -1.20429
3.59802 -0.20473 -1.20469
3.59846 -0.21171 -1.20497
3.59933 -0.21872 -1.20540
3.60020 -0.22574 -1.20583
3.60063 -0.23273 -1.20613
3.60150 -0.23976 -1.20657
3.60194 -0.24676 -1.20687
3.60229 -0.25376 -1.20715
3.60270 -0.26076 -1.20746
3.60358 -0.26781 -1.20792
3.60445 -0.27486 -1.20839
3.60489 -0.28188 -1.20872
3.60577 -0.28894 -1.20920
3.60621 -0.29597 -1.20953
3.60709 -0.30304 -1.21002
3.60807 -0.31012 -1.21055
3.60866 -0.31718 -1.21095
3.60990 -0.32430 -1.21157
3.61052 -0.33137 -1.21199
3.61176 -0.33850 -1.21263
3.61238 -0.34558 -1.21305
3.61362 -0.35273 -1.21370
3.61487 -0.35988 -1.21435
3.61549 -0.36698 -1.21479
3.61670 -0.37415 -1.21544
3.61686 -0.38121 -1.21573
3.61810 -0.38839 -1.21640
3.61935 -0.39558 -1.21708
3.61997 -0.40271 -1.21754
3.62122 -0.40991 -1.21823
3.62184 -0.41705 -1.21870
3.62334 -0.42430 -1.21948
3.62410 -0.43147 -1.22001
3.62568 -0.43874 -1.22083
3.62735 -0.44604 -1.22168
3.62818 -0.45324 -1.22225
3.62985 -0.46055 -1.22311
3.63050 -0.46774 -1.22363
3.63217 -0.47507 -1.22450
3.63384 -0.48242 -1.22537
3.63465 -0.48965 -1.22596
3.63635 -0.49702 -1.22686
3.63723 -0.50428 -1.22748
3.63899 -0.51167 -1.22840
3.64086 -0.51909 -1.22937
3.64189 -0.52640 -1.23006
3.64394 -0.53386 -1.23109
3.64497 -0.54119 -1.23179
3.64680 -0.54864 -1.23277
3.64901 -0.55617 -1.23387
3.65011 -0.56354 -1.23461
3.65232 -0.57108 -1.23573
3.65343 -0.57847 -1.23648
3.65564 -0.58604 -1.23760
3.65809 -0.59367 -1.23882
3.65937 -0.60111 -1.23964
3.66192 -0.60878 -1.24090
3.66446 -0.61646 -1.24216
3.66561 -0.62392 -1.24296
3.66818 -0.63163 -1.24424
3.66946 -0.63913 -1.24509
3.67203 -0.64688 -1.24638
3.67461 -0.65463 -1.24768
3.67589 -0.66217 -1.24855
3.67847 -0.66995 -1.24986
3.67994 -0.67755 -1.25080
3.68298 -0.68545 -1.25228
3.68617 -0.69340 -1.25382
3.68777 -0.70105 -1.25482
3.69097 -0.70904 -1.25637
3.69417 -0.71703 -1.25793
3.69578 -0.72474 -1.25895
3.69899 -0.73277 -1.26052
3.70057 -0.74050 -1.26155
3.70389 -0.74859 -1.26317
3.70752 -0.75676 -1.26490
3.70935 -0.76458 -1.26602
3.71316 -0.77283 -1.26783
3.71708 -0.78112 -1.26968
3.71904 -0.78902 -1.27087
3.72298 -0.79735 -1.27273
3.72703 -0.80573 -1.27465
3.72916 -0.81372 -1.27591
3.73367 -0.82224 -1.27799
3.73818 -0.83079 -1.28008
3.74044 -0.83886 -1.28141
3.74528 -0.84753 -1.28362
3.74822 -0.85578 -1.28519
3.75412 -0.86475 -1.28778
3.76012 -0.87376 -1.29042
3.76314 -0.88211 -1.29203
3.77006 -0.89140 -1.29500
3.77864 -0.90112 -1.29854
3.78303 -0.90987 -1.30065
3.79333 -0.92009 -1.30480
3.80840 -0.93151 -1.31060
3.82102 -0.94241 -1.31556
3.86989 -0.96237 -1.33302
3.96449 -0.99401 -1.36627
3.99414 -1.00963 -1.37715
4.07791 -1.03917 -1.40672
4.08020 1.03975 -1.44078
3.96252 1.00164 -1.39854
3.93078 0.98556 -1.38667
3.86231 0.96049 -1.36186
3.81861 0.94181 -1.34581
3.80663 0.93108 -1.34095
3.79139 0.91961 -1.33495
3.78229 0.90969 -1.33113
3.77807 0.90098 -1.32903
3.77024 0.89144 -1.32567
3.76343 0.88218 -1.32268
3.76041 0.87383 -1.32102
3.75448 0.86483 -1.31835
3.74849 0.85585 -1.31567
3.74588 0.84766 -1.31417
3.74099 0.83898 -1.31189
3.73856 0.83087 -1.31047
3.73368 0.82224 -1.30820
3.72882 0.81364 -1.30595
3.72629 0.80557 -1.30452
3.72224 0.79719 -1.30256
3.71846 0.78889 -1.30070
3.71662 0.78102 -1.29953
3.71295 0.77278 -1.29772
3.70930 0.76457 -1.29593
3.70747 0.75675 -1.29478
3.70358 0.74852 -1.29291
3.69993 0.74037 -1.29114
3.69814 0.73260 -1.29002
3.69472 0.72453 -1.28834
3.69312 0.71683 -1.28729
3.68991 0.70883 -1.28570
3.68674 0.70086 -1.28412
3.68507 0.69319 -1.28307
3.68209 0.68528 -1.28157
3.67912 0.67740 -1.28008
3.67766 0.66981 -1.27912
3.67470 0.66196 -1.27765
3.67322 0.65439 -1.27669
3.67051 0.64661 -1.27532
3.66788 0.63886 -1.27397
3.66649 0.63134 -1.27306
3.66386 0.62362 -1.27173
3.66254 0.61614 -1.27086
3.65995 0.60845 -1.26955
3.65734 0.60078 -1.26824
3.65610 0.59334 -1.26741
3.65365 0.58572 -1.26617
3.65121 0.57812 -1.26494
3.65011 0.57074 -1.26417
3.64796 0.56320 -1.26305
3.64689 0.55585 -1.26230
3.64477 0.54834 -1.26120
3.64267 0.54085 -1.26011
3.64162 0.53352 -1.25939
3.63959 0.52606 -1.25833
3.63858 0.51876 -1.25764
3.63657 0.51133 -1.25660
3.63455 0.50391 -1.25557
3.63354 0.49663 -1.25489
3.63192 0.48928 -1.25400
3.63107 0.48205 -1.25338
3.62938 0.47471 -1.25248
3.62771 0.46738 -1.25159
3.62687 0.46017 -1.25099
3.62521 0.45287 -1.25011
3.62439 0.44567 -1.24953
3.62284 0.43840 -1.24871
3.62129 0.43113 -1.24788
3.62054 0.42397 -1.24734
3.61900 0.41672 -1.24653
3.61830 0.40958 -1.24601
3.61697 0.40237 -1.24529
3.61645 0.39526 -1.24484
3.61512 0.38807 -1.24413
3.61380 0.38088 -1.24342
3.61314 0.37378 -1.24294
3.61184 0.36661 -1.24225
3.61118 0.35952 -1.24178
3.60986 0.35236 -1.24109
3.60854 0.34521 -1.24041
3.60789 0.33814 -1.23996
3.60664 0.33101 -1.23931
3.60604 0.32395 -1.23888
3.60482 0.31684 -1.23825
3.60425 0.30979 -1.23785
3.60336 0.30272 -1.23734
3.60247 0.29566 -1.23684
3.60232 0.28866 -1.23659
3.60142 0.28161 -1.23610
3.60098 0.27459 -1.23576
3.60008 0.26755 -1.23527
3.59919 0.26051 -1.23479
3.59876 0.25351 -1.23448
3.59787 0.24648 -1.23401
3.59743 0.23949 -1.23369
3.59655 0.23247 -1.23324
3.59611 0.22548 -1.23293
3.59524 0.21848 -1.23249
3.59436 0.21147 -1.23204
3.59392 0.20450 -1.23176
3.59310 0.19751 -1.23134
3.59284 0.19055 -1.23113
3.59232 0.18358 -1.23082
3.59205 0.17663 -1.23061
3.59152 0.16967 -1.23032
3.59100 0.16271 -1.23003
3.59073 0.15577 -1.22983
3.59020 0.14881 -1.22955
3.58996 0.14187 -1.22937
3.58943 0.13493 -1.22910
3.58917 0.12799 -1.22892
3.58864 0.12105 -1.22866
3.58814 0.11411 -1.22841
3.58817 0.10719 -1.22835
3.58764 0.10026 -1.22810
3.58737 0.09333 -1.22794
3.58689 0.08641 -1.22772
3.58674 0.07949 -1.22761
3.58664 0.07257 -1.22753
3.58662 0.06566 -1.22747
3.58660 0.05875 -1.22743
3.58658 0.05183 -1.22738
3.58656 0.04492 -1.22735
3.58654 0.03801 -1.22731
3.58652 0.03110 -1.22728
3.58650 0.02419 -1.22725
3.58648 0.01728 -1.22723
3.58647 0.01037 -1.22722
3.58645 0.00346 -1.22721
3.58645 -0.00346 -1.22721
3.58647 -0.01037 -1.22722
3.58648 -0.01728 -1.22723
3.58650 -0.02419 -1.22725
3.58652 -0.03110 -1.22728
3.58654 -0.03801 -1.22731
3.58656 -0.04492 -1.22735
3.58658 -0.05183 -1.22738
3.58660 -0.05875 -1.22743
3.58662 -0.06566 -1.22747
3.58664 -0.07257 -1.22753
3.58674 -0.07949 -1.22761
3.58689 -0.08641 -1.22772
3.58737 -0.09333 -1.22794
3.58764 -0.10026 -1.22810
3.58817 -0.10719 -1.22835
3.58814 -0.11411 -1.22841
3.58864 -0.12105 -1.22866
3.58917 -0.12799 -1.22892
3.58943 -0.13493 -1.22910
3.58996 -0.14187 -1.22937
3.59020 -0.14881 -1.22955
3.59073 -0.15577 -1.22983
3.59100 -0.16271 -1.23003
3.59153 -0.16967 -1.23032
3.59205 -0.17663 -1.23061
3.59232 -0.18358 -1.23082
3.59284 -0.19055 -1.23113
3.59310 -0.19751 -1.23134
3.59392 -0.20450 -1.23176
3.59436 -0.21147 -1.23205
3.59524 -0.21848 -1.23249
3.59611 -0.22548 -1.23293
3.59655 -0.23247 -1.23324
3.59743 -0.23949 -1.23369
3.59787 -0.24648 -1.23401
3.59876 -0.25351 -1.23448
3.59919 -0.26051 -1.23479
3.60008 -0.26755 -1.23527
3.60098 -0.27459 -1.23576
3.60142 -0.28161 -1.23610
3.60232 -0.28866 -1.23659
3.60247 -0.29566 -1.23684
3.60336 -0.30272 -1.23734
3.60425 -0.30979 -1.23785
3.60482 -0.31684 -1.23825
3.60604 -0.32395 -1.23888
3.60665 -0.33101 -1.23931
3.60789 -0.33814 -1.23996
3.60855 -0.34521 -1.24041
3.60986 -0.35236 -1.24109
3.61118 -0.35952 -1.24178
3.61184 -0.36661 -1.24225
3.61314 -0.37378 -1.24294
3.61380 -0.38088 -1.24342
3.61512 -0.38807 -1.24413
3.61645 -0.39526 -1.24484
3.61697 -0.40237 -1.24529
3.61830 -0.40958 -1.24601
3.61900 -0.41672 -1.24653
3.62054 -0.42397 -1.24734
3.62129 -0.43113 -1.24788
3.62284 -0.43840 -1.24871
3.62439 -0.44567 -1.24953
3.62521 -0.45287 -1.25011
3.62688 -0.46017 -1.25099
3.62771 -0.46738 -1.25159
3.62938 -0.47471 -1.25248
3.63107 -0.48205 -1.25338
3.63192 -0.48928 -1.25400
3.63355 -0.49663 -1.25489
3.63455 -0.50391 -1.25557
3.63657 -0.51133 -1.25660
3.63858 -0.51876 -1.25764
3.63959 -0.52606 -1.25833
3.64162 -0.53352 -1.25939
3.64268 -0.54085 -1.26011
3.64477 -0.54834 -1.26120
3.64689 -0.55585 -1.26230
3.64796 -0.56320 -1.26305
3.65011 -0.57074 -1.26417
3.65122 -0.57812 -1.26494
3.65366 -0.58573 -1.26617
3.65610 -0.59334 -1.26741
3.65734 -0.60078 -1.26824
3.65995 -0.60845 -1.26955
3.66255 -0.61614 -1.27086
3.66386 -0.62362 -1.27173
3.66649 -0.63134 -1.27306
3.66789 -0.63886 -1.27397
3.67052 -0.64661 -1.27532
3.67323 -0.65439 -1.27669
3.67470 -0.66196 -1.27765
3.67766 -0.66981 -1.27912
3.67912 -0.67740 -1.28008
3.68209 -0.68529 -1.28157
3.68507 -0.69319 -1.28307
3.68674 -0.70086 -1.28412
3.68991 -0.70883 -1.28570
3.69312 -0.71683 -1.28730
3.69472 -0.72453 -1.28834
3.69814 -0.73260 -1.29002
3.69993 -0.74037 -1.29114
3.70358 -0.74852 -1.29291
3.70747 -0.75675 -1.29478
3.70930 -0.76457 -1.29593
3.71295 -0.77278 -1.29772
3.71662 -0.78102 -1.29953
3.71845 -0.78889 -1.30070
3.72224 -0.79719 -1.30256
3.72628 -0.80557 -1.30451
3.72882 -0.81364 -1.30595
3.73368 -0.82224 -1.30820
3.73856 -0.83087 -1.31047
3.74099 -0.83898 -1.31189
3.74588 -0.84766 -1.31417
3.74849 -0.85585 -1.31567
3.75449 -0.86483 -1.31835
3.76041 -0.87383 -1.32102
3.76344 -0.88218 -1.32268
3.77024 -0.89144 -1.32567
3.77807 -0.90098 -1.32903
3.78229 -0.90969 -1.33113
3.79139 -0.91961 -1.33496
3.80663 -0.93108 -1.34095
3.81862 -0.94181 -1.34581
3.86244 -0.96052 -1.36190
3.93083 -0.98557 -1.38669
3.96257 -1.00165 -1.39856
4.08049 -1.03983 -1.44088
4.09397 1.04326 -1.47919
3.97005 1.00354 -1.43371
3.93052 0.98549 -1.41875
3.85914 0.95970 -1.39231
3.82221 0.94270 -1.37833
3.81019 0.93195 -1.37335
3.79330 0.92008 -1.36662
3.78513 0.91038 -1.36304
3.78121 0.90173 -1.36100
3.77336 0.89218 -1.35755
3.76671 0.88294 -1.35455
3.76382 0.87462 -1.35290
3.75816 0.86568 -1.35026
3.75216 0.85668 -1.34751
3.74954 0.84849 -1.34598
3.74464 0.83980 -1.34364
3.74220 0.83168 -1.34219
3.73736 0.82305 -1.33988
3.73254 0.81445 -1.33758
3.73017 0.80641 -1.33618
3.72580 0.79795 -1.33406
3.72179 0.78960 -1.33208
3.71980 0.78169 -1.33082
3.71593 0.77340 -1.32890
3.71227 0.76518 -1.32706
3.71044 0.75735 -1.32588
3.70652 0.74912 -1.32396
3.70286 0.74096 -1.32215
3.70112 0.73319 -1.32101
3.69776 0.72513 -1.31931
3.69608 0.71740 -1.31822
3.69273 0.70937 -1.31654
3.68948 0.70138 -1.31489
3.68799 0.69374 -1.31388
3.68474 0.68578 -1.31225
3.68175 0.67788 -1.31072
3.68029 0.67029 -1.30974
3.67731 0.66243 -1.30822
3.67583 0.65485 -1.30724
3.67289 0.64703 -1.30575
3.67015 0.63925 -1.30434
3.66878 0.63174 -1.30341
3.66587 0.62396 -1.30195
3.66464 0.61649 -1.30109
3.66221 0.60883 -1.29981
3.65977 0.60118 -1.29853
3.65855 0.59374 -1.29769
3.65610 0.58612 -1.29642
3.65366 0.57851 -1.29516
3.65245 0.57110 -1.29433
3.64976 0.56348 -1.29299
3.64854 0.55610 -1.29218
3.64612 0.54854 -1.29094
3.64392 0.54103 -1.28979
3.64296 0.53372 -1.28909
3.64105 0.52627 -1.28805
3.64009 0.51898 -1.28735
3.63817 0.51155 -1.28633
3.63626 0.50414 -1.28530
3.63530 0.49687 -1.28462
3.63316 0.48945 -1.28353
3.63224 0.48220 -1.28287
3.63041 0.47484 -1.28190
3.62864 0.46750 -1.28096
3.62780 0.46029 -1.28035
3.62614 0.45298 -1.27945
3.62531 0.44579 -1.27885
3.62364 0.43850 -1.27796
3.62198 0.43121 -1.27708
3.62118 0.42404 -1.27651
3.61953 0.41678 -1.27564
3.61876 0.40963 -1.27509
3.61711 0.40239 -1.27423
3.61644 0.39526 -1.27373
3.61511 0.38807 -1.27299
3.61378 0.38088 -1.27226
3.61313 0.37378 -1.27178
3.61192 0.36662 -1.27110
3.61130 0.35953 -1.27064
3.61007 0.35238 -1.26996
3.60884 0.34524 -1.26929
3.60822 0.33817 -1.26884
3.60698 0.33104 -1.26818
3.60637 0.32398 -1.26774
3.60513 0.31687 -1.26709
3.60454 0.30982 -1.26667
3.60354 0.30274 -1.26611
3.60262 0.29567 -1.26559
3.60217 0.28865 -1.26523
3.60125 0.28159 -1.26472
3.60079 0.27458 -1.26437
3.59987 0.26753 -1.26386
3.59895 0.26049 -1.26336
3.59853 0.25349 -1.26304
3.59763 0.24647 -1.26255
3.59719 0.23947 -1.26223
3.59629 0.23245 -1.26176
3.59584 0.22547 -1.26145
3.59495 0.21846 -1.26098
3.59405 0.21145 -1.26052
3.59360 0.20448 -1.26022
3.59275 0.19749 -1.25979
3.59248 0.19053 -1.25957
3.59195 0.18356 -1.25925
3.59168 0.17661 -1.25904
3.59114 0.16965 -1.25873
3.59060 0.16269 -1.25843
3.59033 0.15575 -1.25823
3.58979 0.14880 -1.25794
3.58955 0.14186 -1.25775
3.58901 0.13491 -1.25747
3.58872 0.12798 -1.25728
3.58819 0.12103 -1.25701
3.58765 0.11410 -1.25674
3.58738 0.10717 -1.25657
3.58684 0.10024 -1.25631
3.58657 0.09331 -1.25615
3.58603 0.08639 -1.25590
3.58588 0.07947 -1.25579
3.58573 0.07255 -1.25569
3.58559 0.06564 -1.25559
3.58551 0.05873 -1.25553
3.58537 0.05182 -1.25544
3.58529 0.04490 -1.25538
3.58514 0.03799 -1.25530
3.58507 0.03109 -1.25525
3.58492 0.02418 -1.25518
3.58479 0.01727 -1.25512
3.58477 0.01036 -1.25510
3.58474 0.00345 -1.25509
3.58474 -0.00345 -1.25509
3.58477 -0.01036 -1.25510
3.58479 -0.01727 -1.25512
3.58492 -0.02418 -1.25518
3.58507 -0.03109 -1.25525
3.58514 -0.03799 -1.25530
3.58529 -0.04490 -1.25538
3.58537 -0.05182 -1.25544
3.58551 -0.05873 -1.25553
3.58559 -0.06564 -1.25559
3.58573 -0.07255 -1.25569
3.58588 -0.07947 -1.25579
3.58603 -0.08639 -1.25590
3.58657 -0.09331 -1.25615
3.58684 -0.10024 -1.25631
3.58738 -0.10717 -1.25657
3.58765 -0.11410 -1.25674
3.58819 -0.12103 -1.25701
3.58872 -0.12798 -1.25728
3.58901 -0.13491 -1.25747
3.58955 -0.14186 -1.25775
3.58979 -0.14880 -1.25794
3.59033 -0.15575 -1.25823
3.59060 -0.16269 -1.25843
3.59114 -0.16965 -1.25873
3.59168 -0.17661 -1.25904
3.59195 -0.18356 -1.25925
3.59248 -0.19053 -1.25957
3.59275 -0.19749 -1.25979
3.59360 -0.20448 -1.26022
3.59405 -0.21145 -1.26052
3.59495 -0.21846 -1.26098
3.59584 -0.22547 -1.26145
3.59629 -0.23245 -1.26176
3.59719 -0.23947 -1.26223
3.59763 -0.24647 -1.26255
3.59853 -0.25349 -1.26304
3.59895 -0.26049 -1.26336
3.59987 -0.26753 -1.26386
3.60079 -0.27458 -1.26437
3.60125 -0.28159 -1.26472
3.60217 -0.28865 -1.26523
3.60262 -0.29567 -1.26559
3.60354 -0.30274 -1.26611
3.60454 -0.30982 -1.26667
3.60513 -0.31687 -1.26709
3.60637 -0.32398 -1.26774
3.60698 -0.33104 -1.26818
3.60822 -0.33817 -1.26884
3.60884 -0.34524 -1.26929
3.61007 -0.35238 -1.26996
3.61130 -0.35953 -1.27064
3.61192 -0.36662 -1.27110
3.61313 -0.37378 -1.27178
3.61378 -0.38088 -1.27226
3.61511 -0.38807 -1.27299
3.61644 -0.39526 -1.27373
3.61711 -0.40239 -1.27423
3.61876 -0.40963 -1.27509
3.61953 -0.41678 -1.27564
3.62118 -0.42404 -1.27651
3.62198 -0.43121 -1.27708
3.62364 -0.43850 -1.27796
3.62531 -0.44579 -1.27885
3.62614 -0.45298 -1.27945
3.62780 -0.46029 -1.28035
3.62864 -0.46750 -1.28096
3.63041 -0.47484 -1.28190
3.63224 -0.48220 -1.28287
3.63316 -0.48945 -1.28353
3.63530 -0.49687 -1.28462
3.63626 -0.50414 -1.28530
3.63817 -0.51155 -1.28633
3.64009 -0.51898 -1.28735
3.64104 -0.52627 -1.28805
3.64296 -0.53372 -1.28909
3.64392 -0.54103 -1.28979
3.64611 -0.54854 -1.29094
3.64854 -0.55610 -1.29218
3.64976 -0.56348 -1.29299
3.65245 -0.57110 -1.29433
3.65366 -0.57851 -1.29516
3.65610 -0.58612 -1.29642
3.65855 -0.59374 -1.29769
3.65977 -0.60118 -1.29853
3.66221 -0.60883 -1.29981
3.66464 -0.61649 -1.30109
3.66587 -0.62396 -1.30195
3.66878 -0.63174 -1.30342
3.67015 -0.63926 -1.30434
3.67290 -0.64703 -1.30575
3.67583 -0.65485 -1.30724
3.67731 -0.66243 -1.30822
3.68029 -0.67029 -1.30974
3.68175 -0.67788 -1.31072
3.68474 -0.68578 -1.31225
3.68799 -0.69374 -1.31388
3.68948 -0.70138 -1.31489
3.69273 -0.70937 -1.31654
3.69608 -0.71741 -1.31822
3.69776 -0.72513 -1.31932
3.70112 -0.73319 -1.32102
3.70287 -0.74096 -1.32215
3.70652 -0.74912 -1.32396
3.71044 -0.75735 -1.32588
3.71227 -0.76518 -1.32706
3.71593 -0.77340 -1.32890
3.71980 -0.78169 -1.33082
3.72179 -0.78960 -1.33208
3.72580 -0.79795 -1.33406
3.73018 -0.80641 -1.33618
3.73254 -0.81445 -1.33758
3.73735 -0.82305 -1.33988
3.74220 -0.83168 -1.34218
3.74464 -0.83980 -1.34364
3.74954 -0.84849 -1.34598
3.75216 -0.85668 -1.34751
3.75816 -0.86568 -1.35026
3.76382 -0.87462 -1.35290
3.76672 -0.88295 -1.35455
3.77337 -0.89218 -1.35755
3.78121 -0.90173 -1.36100
3.78513 -0.91038 -1.36304
3.79329 -0.92008 -1.36662
3.81019 -0.93195 -1.37335
3.82221 -0.94270 -1.37833
3.85923 -0.95972 -1.39234
3.93063 -0.98552 -1.41879
3.97018 -1.00357 -1.43376
4.09401 -1.04327 -1.47920
4.11518 1.04867 -1.52074
3.98344 1.00693 -1.47133
3.93900 0.98762 -1.45421
3.86483 0.96112 -1.42614
3.82266 0.94281 -1.40991
3.81259 0.93254 -1.40553
3.79962 0.92161 -1.40009
3.79503 0.91276 -1.39775
3.78783 0.90331 -1.39445
3.77550 0.89268 -1.38928
3.76661 0.88292 -1.38538
3.76220 0.87424 -1.38314
3.75381 0.86467 -1.37943
3.74767 0.85566 -1.37657
3.74462 0.84737 -1.37485
3.74148 0.83909 -1.37310
3.73892 0.83095 -1.37157
3.73382 0.82227 -1.36912
3.72946 0.81378 -1.36694
3.72728 0.80578 -1.36557
3.72296 0.79735 -1.36342
3.72056 0.78934 -1.36198
3.71848 0.78141 -1.36067
3.71433 0.77307 -1.35860
3.71019 0.76475 -1.35655
3.70814 0.75688 -1.35526
3.70435 0.74868 -1.35334
3.70289 0.74096 -1.35229
3.70104 0.73318 -1.35109
3.70277 0.72611 -1.35121
3.70127 0.71841 -1.35016
3.69852 0.71049 -1.34865
3.69597 0.70261 -1.34722
3.69470 0.69500 -1.34627
3.69210 0.68715 -1.34484
3.68941 0.67930 -1.34338
3.68808 0.67171 -1.34242
3.68536 0.66388 -1.34097
3.68401 0.65631 -1.34001
3.67722 0.64779 -1.33708
3.67406 0.63994 -1.33548
3.67269 0.63241 -1.33454
3.66958 0.62460 -1.33297
3.66821 0.61709 -1.33204
3.66550 0.60938 -1.33062
3.66277 0.60167 -1.32921
3.66154 0.59423 -1.32835
3.65910 0.58660 -1.32705
3.65680 0.57900 -1.32581
3.65567 0.57161 -1.32500
3.65338 0.56404 -1.32377
3.65193 0.55661 -1.32285
3.64965 0.54907 -1.32164
3.64741 0.54155 -1.32045
3.64628 0.53421 -1.31967
3.64401 0.52670 -1.31848
3.64288 0.51938 -1.31770
3.64092 0.51194 -1.31663
3.63900 0.50452 -1.31559
3.63807 0.49725 -1.31490
3.63629 0.48987 -1.31391
3.63518 0.48259 -1.31317
3.63340 0.47524 -1.31220
3.63163 0.46789 -1.31123
3.63074 0.46066 -1.31059
3.62897 0.45334 -1.30963
3.62814 0.44613 -1.30902
3.62647 0.43884 -1.30811
3.62483 0.43155 -1.30721
3.62411 0.42439 -1.30666
3.62262 0.41714 -1.30583
3.62187 0.40998 -1.30527
3.62011 0.40272 -1.30435
3.61937 0.39558 -1.30381
3.61797 0.38837 -1.30304
3.61664 0.38118 -1.30229
3.61597 0.37407 -1.30178
3.61467 0.36690 -1.30106
3.61400 0.35980 -1.30057
3.61267 0.35264 -1.29984
3.61134 0.34548 -1.29912
3.61068 0.33840 -1.29865
3.60938 0.33126 -1.29795
3.60873 0.32419 -1.29749
3.60743 0.31707 -1.29680
3.60681 0.31001 -1.29636
3.60565 0.30292 -1.29573
3.60448 0.29583 -1.29510
3.60402 0.28880 -1.29473
3.60309 0.28174 -1.29420
3.60262 0.27472 -1.29384
3.60169 0.26767 -1.29332
3.60076 0.26062 -1.29280
3.60032 0.25362 -1.29246
3.59939 0.24659 -1.29196
3.59893 0.23959 -1.29162
3.59800 0.23256 -1.29113
3.59754 0.22557 -1.29080
3.59661 0.21856 -1.29032
3.59569 0.21155 -1.28984
3.59523 0.20457 -1.28953
3.59447 0.19758 -1.28912
3.59410 0.19062 -1.28885
3.59357 0.18365 -1.28853
3.59332 0.17669 -1.28832
3.59281 0.16973 -1.28802
3.59228 0.16277 -1.28771
3.59201 0.15582 -1.28750
3.59148 0.14887 -1.28721
3.59124 0.14192 -1.28702
3.59045 0.13496 -1.28664
3.59018 0.12803 -1.28646
3.58968 0.12109 -1.28619
3.58919 0.11415 -1.28593
3.58894 0.10722 -1.28577
3.58845 0.10028 -1.28552
3.58821 0.09336 -1.28537
3.58771 0.08643 -1.28513
3.58761 0.07951 -1.28503
3.58750 0.07259 -1.28494
3.58746 0.06567 -1.28488
3.58744 0.05876 -1.28483
3.58740 0.05184 -1.28478
3.58738 0.04493 -1.28474
3.58733 0.03802 -1.28469
3.58731 0.03110 -1.28466
3.58727 0.02419 -1.28463
3.58724 0.01728 -1.28460
3.58722 0.01037 -1.28458
3.58718 0.00346 -1.28457
3.58718 -0.00346 -1.28457
3.58722 -0.01037 -1.28458
3.58724 -0.01728 -1.28460
3.58727 -0.02419 -1.28463
3.58731 -0.03110 -1.28466
3.58733 -0.03802 -1.28469
3.58738 -0.04493 -1.28474
3.58740 -0.05184 -1.28478
3.58744 -0.05876 -1.28483
3.58746 -0.06567 -1.28488
3.58750 -0.07259 -1.28494
3.58761 -0.07951 -1.28503
3.58771 -0.08643 -1.28513
3.58821 -0.09336 -1.28537
3.58845 -0.10028 -1.28552
3.58894 -0.10722 -1.28577
3.58919 -0.11415 -1.28593
3.58968 -0.12109 -1.28619
3.59018 -0.12803 -1.28646
3.59045 -0.13496 -1.28664
3.59124 -0.14192 -1.28702
3.59148 -0.14887 -1.28721
3.59201 -0.15582 -1.28750
3.59228 -0.16277 -1.28771
3.59281 -0.16973 -1.28802
3.59333 -0.17669 -1.28832
3.59358 -0.18365 -1.28853
3.59410 -0.19062 -1.28885
3.59447 -0.19758 -1.28912
3.59523 -0.20457 -1.28953
3.59569 -0.21155 -1.28984
3.59661 -0.21856 -1.29032
3.59754 -0.22557 -1.29080
3.59800 -0.23256 -1.29113
3.59893 -0.23959 -1.29163
3.59939 -0.24659 -1.29196
3.60032 -0.25362 -1.29246
3.60076 -0.26062 -1.29280
3.60169 -0.26767 -1.29332
3.60262 -0.27472 -1.29384
3.60309 -0.28174 -1.29420
3.60402 -0.28880 -1.29473
3.60448 -0.29583 -1.29510
3.60565 -0.30292 -1.29573
3.60681 -0.31001 -1.29636
3.60743 -0.31707 -1.29680
3.60873 -0.32419 -1.29749
3.60938 -0.33126 -1.29795
3.61068 -0.33840 -1.29865
3.61134 -0.34548 -1.29912
3.61267 -0.35264 -1.29984
3.61400 -0.35980 -1.30057
3.61467 -0.36690 -1.30106
3.61597 -0.37407 -1.30178
3.61664 -0.38118 -1.30229
3.61797 -0.38837 -1.30304
3.61937 -0.39558 -1.30381
3.62011 -0.40272 -1.30436
3.62187 -0.40998 -1.30527
3.62262 -0.41714 -1.30583
3.62411 -0.42439 -1.30666
3.62483 -0.43155 -1.30721
3.62648 -0.43884 -1.30811
3.62814 -0.44613 -1.30902
3.62898 -0.45334 -1.30963
3.63075 -0.46066 -1.31059
3.63163 -0.46789 -1.31123
3.63341 -0.47524 -1.31220
3.63518 -0.48259 -1.31317
3.63629 -0.48987 -1.31391
3.63807 -0.49725 -1.31490
3.63900 -0.50452 -1.31559
3.64092 -0.51194 -1.31663
3.64288 -0.51938 -1.31770
3.64401 -0.52670 -1.31848
3.64628 -0.53421 -1.31967
3.64741 -0.54155 -1.32045
3.64965 -0.54907 -1.32164
3.65193 -0.55661 -1.32285
3.65338 -0.56404 -1.32377
3.65567 -0.57161 -1.32500
3.65680 -0.57901 -1.32581
3.65910 -0.58660 -1.32705
3.66155 -0.59423 -1.32835
3.66277 -0.60167 -1.32921
3.66550 -0.60938 -1.33063
3.66821 -0.61709 -1.33204
3.66959 -0.62460 -1.33297
3.67269 -0.63241 -1.33454
3.67406 -0.63994 -1.33548
3.67722 -0.64779 -1.33709
3.68401 -0.65631 -1.34001
3.68537 -0.66388 -1.34097
3.68808 -0.67171 -1.34242
